-0.9364 -1.1623 0.5292
-0.5906 -1.6165 -0.2448
-1.3974 -2.0844 0.7258
-1.1226 -1.0311 0.3843
-1.0916 -1.4973 0.1667
-1.0438 -1.5885 0.7556
-1.2877 -0.9810 -0.3252
-1.1863 -1.0212 0.4439
-0.7886 -1.5735 0.4420
-0.9958 -1.7128 0.8149
-0.7358 -1.6498 0.5683
-1.2785 -1.0194 -0.2463
-0.6818 -1.6380 0.3964
-0.9735 -1.9226 0.5150
-1.2607 -1.0586 -0.2064
-0.2240 -0.4470 0.0603
-0.6325 -1.6108 0.1264
-9.9559 -14.9711 1.1483
-1.1863 -1.1386 0.0597
-0.9496 -1.2954 -0.0615
-1.2517 -1.8232 0.6841
-1.1439 -1.6157 0.4337
-1.3457 -1.1410 0.4847
-0.9333 -1.6065 0.2127
-0.5403 -1.5967 0.2406
-8.0294 -16.6102 4.1749
-1.2190 -1.6114 0.4425
-1.7246 -2.1402 0.3971
-0.1664 -0.4415 0.0325
-1.1927 -1.5565 -0.1160
-1.2994 -1.4845 -0.1474
-0.5705 -0.6195 0.4324
-10.1140 -15.1646 0.4944
-8.9146 -16.0295 0.4883
-1.2652 -2.5557 -0.4900
-1.0714 -1.8374 0.3292
-1.2312 -1.9562 0.4532
-0.9667 -1.8436 0.3354
-0.7220 -1.9745 0.5904
-1.6956 -2.4786 1.1797
-0.7792 -1.6052 0.1468
-0.5947 -1.4791 -0.0733
-0.6224 -1.4221 0.0529
-10.4576 -7.2249 3.3135
-8.2639 -14.7441 4.0808
-0.7178 -2.4130 -0.3660
-1.4822 -4.4960 -1.3583
-0.5446 -2.0977 -0.5283
-0.0923 -0.6687 -0.2984
-4.0776 -22.2300 8.0586
-3.2481 -4.7636 -0.8528
-0.8066 -2.4073 -0.2224
-1.9657 -3.2884 -0.1866
-1.2210 -4.5058 -0.2283
-4.9280 -19.7031 -0.6585
-1.2389 -2.0270 0.0514
-1.1291 -4.0816 0.0740
-0.9062 -2.0130 0.1006
-9.7899 -15.9273 0.4557
-0.4126 -1.9193 0.1834
-0.9480 -2.3140 0.2421
-1.0354 -2.2960 0.3530
-3.8909 -20.3258 3.4934
-2.0529 -1.6241 -0.7864
-1.5232 -2.1007 -0.6989
-0.8780 -1.9478 0.6198
-2.3274 -4.0997 0.4452
-1.1375 -0.9899 -0.0876
-5.6940 -8.2014 -1.6784
-1.6141 -1.9321 -0.1403
-9.7845 -15.5828 -2.7243
-0.3493 -1.4747 0.6413
-0.8718 -1.4283 -0.1979
-0.8270 -0.7077 0.1843
-8.6431 -15.5557 5.3234
-0.8037 -0.3847 0.3280
-8.0225 -8.0567 2.8938
-2.7380 -2.8208 0.8420
-2.1727 -2.0143 -0.7629
-0.3343 -2.2706 -0.1286
-2.1812 -2.2426 -0.4502
-0.5456 -2.3321 -0.3376
-1.5402 -1.1982 -0.3984
-4.9804 -19.3827 -2.3096
-2.3295 -1.7993 -0.2329
-3.0950 -2.5512 1.7043
-0.7874 -2.3975 -0.1214
-5.4836 -8.7197 -0.7740
-2.4693 -3.5110 -0.1481
-4.9710 -21.5908 7.0861
-1.8349 -3.2007 1.2400
-0.1024 -1.9175 -0.3636
-1.3778 -3.2798 0.1606
-2.1517 -3.6053 1.0091
-3.1212 -2.4475 0.9858
-2.8938 -2.2075 0.3583
-4.7971 -19.7256 0.9979
-0.9193 -2.2942 0.2033
-1.6604 -3.2383 0.3517
-2.0316 -5.8366 0.8819
-2.4857 -1.9001 0.2497
-5.3750 -19.2916 4.3480
-8.9968 -16.3210 1.9277
-0.5725 -2.2265 0.2359
-2.4710 -1.8687 -0.5472
-1.9765 -3.1706 0.3704
-1.7891 -2.4013 -0.1919
-1.8060 -1.9156 1.0066
-1.4915 -1.4750 0.0596
-3.2165 -3.2104 1.4401
-3.0636 -2.7233 1.3090
-2.4175 -1.9790 -0.8599
-2.2999 -1.8794 0.0147
-2.8036 -3.4797 -0.9815
-3.0065 -2.4407 0.5970
-2.4001 -2.4242 0.4281
-2.9644 -4.1474 -0.3710
-1.7624 -2.1688 0.3108
-3.0819 -4.2893 0.9060
-3.0276 -3.9212 0.8731
-1.9545 -1.7675 1.0862
-11.8981 -8.4740 0.3842
-2.0739 -2.2101 1.2625
-1.9286 -2.3884 -0.2657
-2.6964 -2.9692 1.4268
-2.6803 -3.2098 -0.4648
-0.4363 -2.6569 0.4092
-0.6626 -0.6968 -0.0470
-0.4856 -1.3869 0.0364
-0.2076 -0.2108 -0.0044
-0.9920 -2.6577 0.9174
-8.4600 -15.5781 7.2942
-2.4610 -4.6849 2.0857
-1.9031 -4.0996 1.2204
-1.8362 -4.1562 1.2132
-0.7882 -0.9800 0.4286
-1.2029 -2.5586 0.8218
-0.9921 -3.1300 0.8397
-4.3592 -20.3517 5.0310
-2.8997 -3.2043 1.0111
-0.8396 -3.0644 0.7415
-2.4312 -4.2718 0.9298
-2.9231 -1.9793 0.3810
-1.1174 -3.5066 -0.4515
-2.4109 -3.7775 -0.6811
-1.4378 -3.6545 -0.6262
-2.7509 -2.7286 -0.5680
-2.6119 -4.0345 -0.9137
-3.7987 -3.4690 -1.4026
-10.3435 -14.5651 0.5411
-2.1418 -2.8571 -0.9299
-1.6307 -3.4860 -0.8224
-0.5552 -1.2193 -0.5539
-2.1699 -3.0490 -0.4305
-6.5593 -18.6461 -1.3116
-1.3597 -3.1139 1.5459
-1.0529 -3.0556 1.4406
-10.2427 -15.2868 -0.7800
-1.0815 -3.0832 1.3335
-1.6390 -4.4103 0.1400
-2.2120 -4.8967 2.0227
-6.2460 -18.4843 1.8880
-2.0489 -3.6263 1.5428
-0.8540 -3.0754 1.0227
-2.2748 -3.6336 1.4443
-2.8366 -2.4551 0.6857
-0.7620 -1.0945 0.3674
-1.5847 -3.2377 0.7566
-1.5848 -4.1516 1.0333
-1.6705 -1.8536 0.6393
-2.5969 -1.8078 -0.8811
-3.1049 -2.3139 0.9658
-3.0153 -2.3535 0.8349
-1.1417 -4.6076 0.8121
-1.3302 -3.1774 -0.7501
-3.4064 -2.4927 0.7909
-2.3607 -3.4961 1.4389
-2.4595 -3.3797 1.4418
-0.9927 -3.1293 -0.6364
-3.0380 -2.4596 1.4025
-2.8729 -2.4441 0.4560
-2.6878 -2.1897 0.1997
-2.5087 -3.1817 0.3218
-2.6688 -1.9605 0.1206
-2.5326 -3.1814 0.1866
-10.8036 -14.9055 -0.0861
-2.4763 -2.4012 -0.0157
-0.6691 -3.0146 1.1997
-2.0808 -2.2564 0.0584
-2.8678 -2.4238 1.5236
-3.0145 -2.3795 1.7460
-1.5612 -3.2603 1.6540
-1.8978 -3.1468 -0.2979
-2.8689 -2.6773 1.0976
-1.9965 -3.1268 1.7074
-2.4036 -2.9939 0.8885
-2.5095 -2.5434 -0.0562
-0.7133 -0.7968 0.6268
-0.6990 -1.3441 0.3533
-0.7283 -1.4013 0.1777
-2.3497 -4.5140 1.9593
-1.3741 -4.6466 1.2854
-4.0486 -20.6105 5.0008
-1.0327 -4.9787 1.0086
-2.7001 -3.0201 1.0053
-7.6092 -5.2303 2.2020
-2.7729 -2.8346 0.6982
-1.6074 -1.7706 0.2007
-3.0247 -3.0890 -0.1603
-3.9122 -3.7430 -1.1854
-1.0790 -3.9681 -1.2023
-2.3193 -3.3836 -1.1553
-1.8747 -5.5295 -2.0051
-2.5639 -3.5600 0.3295
-3.2354 -4.9423 -1.5365
-3.8212 -4.5592 -1.7401
-3.6894 -4.7669 -1.6381
-1.5442 -0.8233 -0.2272
-2.8299 -2.2650 -0.7332
-1.8927 -3.8827 1.7677
-2.4839 -4.0431 1.7792
-1.6957 -4.6056 1.6341
-3.8043 -2.6951 -0.8945
-10.1550 -7.3845 4.4316
-0.0744 -0.7443 -0.3011
-2.9867 -2.4452 1.4982
-5.4055 -19.2716 5.5933
-1.5711 -4.1414 -1.0532
-2.1349 -4.5064 1.4382
-1.1067 -1.3072 -0.2726
-2.8374 -3.2875 -0.9116
-1.0232 -0.8366 0.3677
-2.5275 -3.8723 1.0808
-2.7816 -2.4473 0.9056
-0.9882 -0.8076 0.3405
-3.1417 -2.3269 0.8453
-2.7859 -2.3090 0.7790
-2.8277 -2.4669 0.7965
-2.7773 -2.7159 0.8024
-3.1547 -4.5275 -1.0116
-2.8101 -2.3106 0.6691
-2.8998 -5.5916 0.7187
-3.9855 -20.2236 1.7819
-0.8544 -0.2808 0.2252
-3.2917 -2.5209 0.5383
-0.7986 -1.8216 -0.3298
-1.1298 -0.5274 0.1445
-2.9102 -3.5641 -0.1299
-0.9291 -2.2825 -0.0304
-2.7508 -3.3487 -0.2477
-1.7501 -3.9155 1.7277
-0.8451 -1.0207 0.5667
-8.6032 -15.4184 4.8913
-2.0214 -6.2303 1.2259
-2.3589 -5.4032 1.1556
-0.7955 -0.6353 0.2350
-3.0312 -2.1356 0.4439
-1.9550 -5.0099 -0.6906
-2.2226 -7.0377 -1.1295
-2.2091 -4.4255 -1.0611
-3.3042 -3.1937 -0.8624
-2.4352 -3.8066 -1.6411
-1.6059 -5.0320 -1.7104
-5.4421 -8.8196 -3.7298
-2.6666 -4.1321 -1.0800
-2.0522 -4.8660 2.2324
-2.3494 -4.4717 1.7504
-2.5624 -4.5390 0.6142
-0.0802 -0.7485 -0.3611
-0.0862 -1.2558 -0.6007
-3.1518 -4.3482 2.1768
-1.4253 -0.7440 0.5426
-5.8426 -8.3184 -2.7533
-2.4685 -4.4536 1.0000
-4.7283 -19.7045 1.8207
-2.4339 -4.5554 -1.1220
-3.2574 -3.5665 0.3918
-3.2353 -3.9659 -1.2525
-4.0507 -4.6055 -1.1571
-0.9643 -1.0013 0.1500
-2.7995 -5.0691 -0.2490
-1.0762 -0.9223 0.1220
-2.3703 -4.6587 -0.4198
-2.4561 -5.9218 -0.6569
-2.6449 -4.2640 -0.8101
-6.1791 -7.6601 -1.8609
-3.3049 -3.4899 -1.2677
-0.2125 -0.4920 0.1542
-1.3902 -6.9015 2.7695
-1.5594 -6.9296 2.6881
-1.8497 -6.2968 2.4498
-1.0567 -7.2055 2.2187
-2.8966 -5.6452 1.6833
-1.7126 -6.9039 1.4676
-3.4484 -3.4028 0.7122
-1.7656 -6.5386 -0.1283
-3.6134 -3.4663 0.1748
-2.0518 -6.2488 -0.5916
-2.1520 -6.0614 -0.6387
-1.7148 -6.4137 -1.1192
-2.9190 -5.3076 -1.2287
-2.6171 -5.8694 -1.0812
-2.2442 -6.0650 -1.1752
-4.2614 -2.6839 -0.7414
-3.5683 -5.1983 -1.4408
-1.9772 -6.1322 -2.1990
-4.2509 -6.0333 -1.9686
-3.3254 -2.0419 -1.0916
-3.3647 -4.9763 -2.0031
-2.0204 -6.0293 -2.6788
-6.9287 -7.0440 -3.5644
-4.1884 -2.5652 -1.3830
-2.3158 -6.0844 -1.0287
-3.3525 -5.8080 2.9034
-2.4939 -6.0856 2.8882
-2.9843 -4.9400 2.7707
-4.2669 -5.5735 -2.4447
-3.2059 -2.5235 2.0564
-2.8063 -6.5911 -2.5784
-2.5597 -5.5401 2.4929
-4.1928 -4.8172 -2.0583
-1.8225 -3.1817 -1.1142
-3.4533 -4.9803 2.2703
-3.2411 -5.3788 2.0482
-3.1096 -4.9656 -2.2008
-3.0260 -7.3191 -2.2805
-3.1534 -6.8537 1.7220
-1.8489 -6.9801 1.4233
-8.2921 -12.9517 -4.3794
-3.1741 -5.2282 -1.4939
-2.9249 -6.2871 1.3159
-3.2934 -6.7801 0.8352
-2.8683 -6.5331 0.5122
-1.0491 -0.8228 0.2385
-7.9712 -13.0174 0.9738
-2.7122 -8.2636 -1.8265
-1.4149 -4.2969 0.0929
-3.3063 -6.0810 -1.2720
-3.4624 -2.7067 0.4165
-3.5347 -4.3652 -0.7198
-3.8491 -5.0831 -0.6813
-2.5950 -5.9713 -0.2923
-3.4763 -4.3809 -0.3662
-4.0809 -5.1129 -0.2512
-3.8926 -6.1193 -0.4623
-1.1213 -3.0644 -0.3977
-4.3347 -3.0187 -0.5696
-3.4780 -3.2039 0.3716
-3.6290 -5.7443 -0.8793
-3.7770 -2.6916 -0.3511
-4.3728 -3.0241 -0.7279
-0.9716 -1.3643 0.8192
-3.1217 -5.8920 3.2308
-2.4250 -8.1220 3.5393
-3.4752 -6.4128 3.2637
-0.2539 -7.5021 1.9900
-2.1143 -7.1091 1.6317
-1.6609 -7.1689 1.5138
-4.6862 -8.1821 1.9561
-3.9913 -2.6436 0.6399
-2.6065 -6.9617 -1.2566
-3.8183 -5.6539 -2.0807
-1.0332 -7.6345 -2.5217
-2.6846 -6.8208 1.8774
-0.9077 -0.7592 0.5322
-3.2691 -6.3056 3.0105
-3.5112 -5.5111 2.7093
-2.6539 -6.7888 2.3723
-2.5536 -7.3398 2.4656
-3.9693 -5.9513 2.4252
-3.8475 -3.1157 1.6723
-0.6228 -0.1171 0.2389
-3.5890 -6.2221 -0.2218
-3.9628 -6.1966 1.7514
-0.9992 -0.9591 0.1125
-3.5228 -6.6928 1.5245
-3.2384 -7.7995 -0.1004
-3.7058 -5.3634 1.3485
-3.3428 -7.0819 -0.0436
-3.5253 -6.4870 0.9593
-6.0945 -5.7272 1.0714
-2.3748 -7.0434 0.6901
-2.3216 -1.5066 0.3154
-1.7915 -1.0184 0.2782
-4.4222 -3.7096 0.4805
-4.5337 -5.3294 0.2787
-13.2229 -9.4195 -3.7478
-1.1594 -0.5242 0.0748
-4.9300 -3.0747 -1.4157
-4.2258 -3.7498 0.2515
-1.3722 -0.9575 0.6872
-4.6528 -3.8211 0.0879
-4.5915 -3.3323 0.2880
-4.0274 -3.9428 2.2975
-3.9075 -4.5678 1.3197
-0.9366 -0.6916 0.4704
-2.7159 -1.8949 -0.6274
-1.0800 -1.2965 0.8809
-1.4558 -8.8403 3.2438
-4.4616 -4.6007 2.9690
-3.2618 -8.1930 2.1674
-3.8358 -7.4717 2.2090
-0.7498 -0.6029 0.3369
-4.2436 -2.8283 1.2099
-3.1095 -8.1339 0.9817
-0.8306 -0.5543 0.2023
-4.3056 -5.7807 0.5549
-3.9885 -2.5316 0.3956
-2.6252 -7.9413 0.0183
-4.3201 -2.7668 0.2437
-3.1981 -8.7228 -1.2873
-4.4290 -2.8028 -0.1776
-1.5767 -5.4435 -0.9781
-2.6492 -8.0836 -2.0539
-1.3595 -5.5727 -1.6410
-1.5657 -9.5094 -3.0325
-5.4584 -4.8276 -1.8693
-4.3238 -2.5821 -1.3950
-4.8951 -6.5400 -2.9780
-4.4532 -6.2724 -2.8790
-5.0051 -6.8624 -3.1205
-4.5859 -6.6479 -1.7912
-3.3088 -8.0387 3.8187
-3.3497 -8.3293 3.4952
-4.2874 -6.5288 -2.7545
-3.0603 -7.8757 -0.8654
-1.3431 -2.1757 -0.0848
-4.5938 -6.0270 -0.3039
-4.8566 -19.6857 0.1746
-2.6967 -8.8837 3.8305
-3.3131 -8.1302 0.5686
-3.7874 -8.2148 0.6601
-3.4120 -7.7694 1.2921
-3.7972 -7.5331 1.0807
-4.3418 -3.0487 1.5955
-3.3900 -7.8521 1.6420
-1.8199 -7.4312 3.0917
-0.7660 -2.3856 1.2052
-3.9137 -7.4252 4.0704
-4.2270 -6.2466 4.0442
-0.9758 -2.3756 -0.4082
-4.8903 -3.5989 -1.3198
-1.7926 -7.4335 3.3948
-4.4664 -3.3377 0.6219
-3.0540 -7.8299 -3.0771
-4.5408 -5.7057 2.3568
-1.6096 -1.7202 1.1969
-0.9391 -0.3882 0.4509
-0.7957 -0.2404 0.3205
-1.5534 -1.7611 1.1268
-3.0935 -2.8340 2.0566
-4.8238 -4.1605 0.0696
-2.4048 -8.6867 2.4113
-4.0813 -7.5728 3.8337
-3.7532 -7.3578 2.5293
-4.3867 -5.9042 3.7104
-10.4699 -8.0206 4.2906
-10.1391 -16.2672 -2.2279
-4.3576 -2.9091 1.5449
-0.5478 -1.5284 0.0259
-4.9130 -6.9893 -1.2679
-5.5664 -5.0363 -0.9314
-5.7144 -5.0681 -1.4758
-5.3834 -4.5976 -1.5604
-5.0335 -2.8955 -1.2033
-5.3576 -7.3261 -2.9751
-4.9836 -6.3483 0.6908
-4.9852 -7.1107 -3.4507
-11.1150 -14.9199 -5.1094
-3.6431 -8.5890 -2.2639
-4.4955 -5.9644 3.5664
-0.7608 -0.7340 0.4910
-9.1661 -16.3167 -0.9331
-4.8239 -6.5130 2.9251
-3.2329 -8.8912 0.5742
-1.3167 -1.4168 0.3978
-0.5973 -0.1812 0.2074
-4.6692 -8.3978 -3.2435
-0.9358 -1.7651 -0.6831
-3.2042 -2.9223 1.8393
-0.6381 -0.3397 0.2421
-10.8633 -14.8702 -1.9955
-1.9924 -1.4750 0.5070
-5.0848 -3.8908 0.3866
-4.7814 -4.0942 1.6686
-4.9961 -3.1543 -0.7689
-2.8735 -1.8569 -0.3571
-4.8671 -3.1248 -0.4056
-10.8178 -10.2152 0.2727
-1.8964 -2.2388 -0.8850
-4.1514 -5.0115 -0.9159
-1.7755 -3.2563 -0.2096
-2.8758 -2.7831 -0.9668
-2.9610 -2.3448 1.0615
-0.3206 -11.0928 4.0158
-2.3871 -3.9902 2.1609
-0.9216 -0.3113 0.3831
-3.4964 -9.5120 2.6172
-1.1866 -2.3159 0.7701
-5.0114 -7.8702 1.8965
-3.1087 -10.3172 -1.7190
-4.4029 -10.0038 -1.8576
-5.5650 -7.7378 -1.4727
-5.6061 -7.6944 -1.8238
-1.8591 -11.0596 -2.6643
-5.6916 -7.7158 -2.1710
-5.5138 -3.1951 -1.3754
-5.7568 -7.8449 -2.8472
-4.5736 -3.4096 3.5608
-5.0092 -7.7233 5.0695
-0.6638 -0.1265 0.2726
-3.6770 -10.1759 4.4809
-0.8287 -0.7583 0.4920
-1.4861 -1.3475 -0.3853
-5.8150 -3.9016 -1.4858
-5.3163 -19.6777 -6.1663
-0.7537 -0.1981 0.2483
-4.5925 -19.9286 4.3684
-2.9803 -2.7435 1.3033
-0.8818 -0.7273 0.3251
-1.7495 -5.4193 1.1008
-4.6264 -19.8218 3.5157
-2.8783 -2.5076 0.9593
-5.2656 -8.4299 1.8059
-5.7624 -7.3925 -1.9856
-1.5280 -1.0470 -0.2254
-4.9454 -8.4760 0.9615
-5.8962 -6.6092 -1.7122
-11.7490 -10.4634 0.8414
-5.6333 -8.0590 -1.9514
-4.4797 -9.2340 0.4257
-6.4158 -18.5767 0.3146
-3.3845 -9.4555 -0.1917
-4.9117 -8.8268 -0.3133
-5.6725 -4.3885 -0.7485
-10.2695 -13.9571 -2.3917
-1.4384 -1.6591 0.6675
-6.1322 -4.2519 -2.1287
-5.8620 -4.7420 -1.1014
-0.4816 0.0235 0.1684
-0.5051 -0.0015 0.1541
-0.6016 -0.0538 0.2049
-0.7233 -0.8625 -0.2093
-6.8504 -18.2755 5.5434
-0.4673 0.0163 0.1657
-0.4878 0.0204 0.1836
-1.8524 -3.3783 -0.6267
-1.7383 -2.3982 0.9846
-12.2848 -8.7361 -0.5159
-2.1504 -1.6235 0.4356
-3.4074 -6.4153 3.2530
-7.1470 -5.0960 1.3699
-2.5784 -5.6354 1.8476
-1.2777 -0.6119 -0.0942
-0.6926 -1.7316 0.5740
-2.3624 -5.7277 1.4667
-0.4899 0.0287 0.1922
-9.6669 -15.2721 -3.9704
-1.3426 -3.8176 -0.6357
-4.9815 -6.2102 -0.4566
-1.4388 -3.8186 -0.1560
-8.9719 -12.5056 2.1142
-5.2701 -15.3871 0.9447
-2.7722 -5.4394 1.8227
-0.4877 0.0301 0.1863
-0.4950 0.0225 0.1827
-3.3412 -3.1314 0.8423
-4.3214 -7.1983 2.9382
-7.5458 -5.7595 2.8035
-4.8339 -6.9240 -1.1007
-7.8034 -5.5973 2.0611
-10.7025 -14.7040 -1.3700
-8.9301 -6.3835 1.9908
-3.9365 -4.8355 0.3209
-4.2116 -3.7620 2.5276
-9.7434 -6.9196 0.0064
-10.3425 -15.3141 -2.0815
-3.2796 -2.7912 1.5239
-7.8354 -12.8810 2.0870
-1.5497 -0.8823 0.3361
-0.3671 -0.5754 0.2504
-4.8275 -3.7219 0.2842
-4.4622 -2.8227 -0.9399
0.0397 -11.4219 2.9366
-2.6200 -5.6497 1.4853
-12.2723 -9.2003 -3.6493
-4.0399 -2.9879 2.0071
-7.7224 -5.5879 3.6691
-2.7666 -8.4999 2.2573
-7.2553 -5.1635 1.1238
-4.7696 -8.2505 1.2680
-0.6118 -8.1230 -2.4445
-2.2694 -7.7277 2.6170
-5.8152 -17.6954 4.1058
-2.5785 -7.2563 1.1319
-3.2387 -6.0278 -0.2307
-3.5851 -2.7851 0.1044
-2.4355 -1.5996 0.5451
-2.8650 -9.9523 -3.8933
-2.7557 -8.3168 -2.1882
-6.8461 -18.8181 -5.1010
-11.1616 -15.0305 -4.4978
-5.5075 -4.7835 -1.2705
-1.7165 -3.1398 0.4680
-10.6043 -11.4990 4.3582
-4.2560 -17.2181 -2.5881
-6.7569 -11.3771 -2.4948
-3.9124 -10.5965 4.5702
-0.8037 -1.8957 -0.7022
-5.5635 -16.7614 3.1822
-8.3891 -11.7227 2.5385
-11.5740 -8.2583 1.2571
-7.7332 -12.1614 5.5312
-4.9687 -4.7014 -2.1044
-5.7392 -9.8965 4.8106
-9.7884 -15.8406 -0.8506
-5.9532 -8.1123 -0.3072
-9.1022 -6.4696 -2.1368
-6.0681 -5.7393 1.9121
-4.7916 -8.1173 3.6525
-0.4403 -0.7303 0.2862
-5.6873 -10.9113 -1.1060
-8.4835 -15.5074 6.6382
-6.0028 -9.9974 -2.6112
-6.6530 -9.4916 -3.5611
-8.9684 -14.9007 3.6907
-9.1859 -7.1193 5.2991
-7.5603 -5.4695 2.7286
-6.4343 -10.0257 -2.9461
-10.0108 -7.7379 5.3568
-8.1958 -16.0090 7.2899
-2.4854 -2.0065 -0.7444
-2.3973 -1.8013 -0.6476
-4.5517 -12.4730 3.3408
-7.3466 -14.8066 4.2096
-8.0239 -8.0046 0.7369
-5.2033 -17.6064 -2.6034
-4.3140 -6.1234 -0.5145
-6.5273 -14.5396 0.3991
-9.5688 -13.4443 3.4634
-7.0127 -9.0501 1.6022
-2.3909 -7.5617 0.8195
-4.8389 -19.0234 -1.4443
-5.9689 -13.4050 0.9565
-10.6380 -15.4915 -4.0027
-8.9912 -12.8260 4.8274
-10.2932 -13.3644 2.9198
-9.4868 -14.5365 4.5087
-7.3358 -12.3723 4.4668
-10.3284 -10.0856 5.4463
-1.8831 -1.5559 -0.8075
-12.4655 -9.3297 -4.1567
-10.4997 -13.5840 1.7411
-13.7583 -9.7780 -4.8959
-11.6048 -11.9994 -4.6317
-0.4723 -0.6437 -0.2118
-7.2283 -5.3710 1.0811
-0.8057 -1.1864 -0.7176
-5.8619 -17.9476 5.3166
-5.1805 -19.6646 -4.5362
-12.3499 -12.8528 -3.2693
-4.2769 -20.2736 -1.5902
-1.0391 -1.1210 -0.4614
-1.0054 -1.1088 -0.3942
-4.7428 -19.5578 4.8823
-0.0974 -19.5526 -6.1492
-7.9229 -16.8100 6.0680
-10.7584 -10.3404 3.9398
-11.3427 -9.5545 1.7709
-5.4233 -6.7630 -2.0579
-9.5272 -16.8466 3.1833
-10.4239 -17.4735 -5.3856
-11.8366 -11.2874 3.0948
-12.0344 -10.7508 1.9229
-11.1369 -17.3792 -6.6406
-12.5843 -9.4523 -0.0953
-3.9607 -3.2682 -0.0627
-1.5182 -1.5694 -1.0727
-12.5240 -17.9023 -8.3595
-12.0021 -17.5925 -3.0662
-5.7807 -20.8439 -8.2456
-7.4133 -20.5352 -4.6803
-6.4229 -21.0025 -2.4459
-10.8591 -17.5118 -1.6790
-5.6219 -21.5479 -3.7559
-1.0566 -2.0723 -0.9565
-0.5212 -1.2738 -0.6206
-0.8295 -2.8992 -1.0592
-0.4958 -0.6449 -0.2180
-0.5476 -0.7279 -0.4539
-1.0172 -1.9235 -0.8156
-0.8249 -1.8960 -0.8723
-1.8600 -1.7104 -1.4686
-1.2587 -1.6820 -0.9099
-1.3775 -1.9381 -0.9180
-0.6145 -1.2192 -0.4089
-0.8611 -1.0926 -0.6077
-0.6942 -1.9247 -0.6281
-1.9554 -1.8417 -1.1278
-0.7136 -1.8301 -0.6039
-0.6775 -1.8197 -0.6876
-0.8161 -0.7399 -0.6561
-0.5519 -0.7379 -0.5423
-0.9312 -1.3801 -1.0040
-0.3806 -1.2574 -0.7891
-1.3469 -1.3260 -1.0984
-0.9016 -1.8765 -0.9473
-1.9913 -1.8727 -0.5691
-1.6886 -1.5728 -1.0265
-1.0113 -1.4226 -0.8550
-1.3402 -1.3215 -1.0326
-1.2704 -1.7855 -1.4225
-1.3458 -1.8558 -1.5024
-0.6306 -1.9171 -1.0543
-0.3914 -0.9534 -0.5325
-1.8781 -1.8595 -1.4913
-0.1345 -1.2493 -0.8221
-0.3972 -1.1291 -0.6832
-0.6196 -1.2498 -0.8848
-0.2779 -0.7423 -0.3922
-0.7349 -1.3564 -1.0312
-1.3679 -1.8711 -0.9035
-1.3650 -1.9141 -0.9229
-1.3867 -1.3688 -0.6237
-1.5125 -1.4320 -0.8438
-0.7142 -0.7478 -0.6906
-0.4164 -1.2323 -0.9397
-0.6250 -1.9325 -1.5688
-0.1975 -1.2716 -0.8381
-0.3853 -1.2771 -0.8555
-0.3382 -1.8956 -1.1875
-0.3516 -1.1830 -0.9121
-0.3825 -1.2749 -0.9124
-0.6756 -1.8798 -1.2993
-0.0203 -0.7593 -0.5416
-0.4255 -1.8810 -1.1878
-0.8800 -1.3841 -1.0595
-0.0837 -1.3009 -0.7284
-1.2895 -1.9156 -0.8354
-0.4533 -1.2581 -0.3679
-0.0463 -1.3203 -0.4532
-1.2866 -1.9149 -1.3321
-0.1695 -0.2685 -0.1416
-1.1475 -1.8444 -1.3634
-1.8520 -1.8398 -1.0324
-1.2720 -1.9400 -0.6033
-0.0329 -1.3072 -0.6711
-0.0375 -1.3175 -0.5632
-0.4021 -1.9764 -0.6452
-0.0736 -2.0583 -0.5784
-0.4221 -0.4222 -0.3386
-1.7712 -1.8557 -1.4767
-1.5535 -1.8334 -1.5273
-0.2607 -2.0471 -1.6098
-0.0182 -1.2853 -0.9807
0.0689 -0.5991 -0.4818
-0.1183 -1.6793 -0.1328
-1.2705 -1.7599 -0.2896
-0.1074 -1.8875 -0.2796
-0.7438 -1.9113 -0.4123
-0.7396 -1.4731 -0.4251
-0.0306 -0.7466 -0.2943
-0.0898 -0.0915 -0.1802
-0.5243 -1.8571 -0.7703
-0.2747 -0.2431 -0.2564
-0.1725 -0.1860 -0.2205
-0.7201 -1.9429 -0.9880
-0.2274 -1.9165 -1.0883
0.0049 -0.0046 -0.2131
-0.4976 -1.2372 -0.9198
-0.0812 -1.2955 -0.7826
-0.7198 -2.0140 -1.4777
-0.0298 -1.3167 -0.7883
-0.3105 -1.2349 -0.8856
-0.2519 -1.2547 -0.8908
-0.3062 -1.2287 -0.9371
-0.1943 -1.2654 -0.8929
-0.0219 -1.2185 -0.7965
-0.1409 -1.3040 -0.9091
-0.2551 -1.2736 -0.9583
-0.0720 -1.2413 -0.8693
-0.1844 -1.2143 -0.9197
-0.0485 -2.0161 -1.3927
-0.1362 -1.2904 -0.9590
-0.0171 -1.2654 -0.9319
-0.0445 -0.2482 -0.1501
-1.1113 -1.5389 -0.8773
-0.4331 -0.2300 -0.3024
-0.0432 -0.1168 -0.1399
-0.0867 -0.2539 -0.1445
-0.1887 -1.9677 -0.3750
-0.3672 -1.9872 -0.4744
-0.2750 -0.4430 -0.2534
-1.0427 -1.8521 -0.7088
-0.0868 -1.7887 -0.4989
-0.5280 -1.1581 -0.4861
-1.1436 -1.8828 -1.0390
-1.0273 -1.3614 -0.9632
-0.0292 -0.4182 -0.3101
-0.0406 -0.1779 -0.1498
-0.1765 -1.2904 -0.4121
-0.8008 -1.2952 -1.4505
0.3327 -1.6849 -1.2790
-0.5949 -1.4412 -0.4628
-0.4047 -1.3097 -0.4701
-0.0461 -1.2975 -0.3966
-0.3874 -0.9488 -0.6092
-0.0643 -0.1981 -0.2272
-0.0339 -0.1958 -0.2141
0.0430 -0.2869 -0.3355
-0.0924 -1.6680 -0.4025
-0.4135 -1.1869 -0.5465
-0.0070 -0.0448 -0.1393
-0.0106 -0.0962 -0.1758
-0.0081 -0.1593 -0.2052
0.0019 -0.0410 -0.1702
-0.0048 -0.0142 -0.1480
-0.0059 -0.0748 -0.1722
-0.0267 -0.0618 -0.1769
0.0061 -0.0468 -0.1866
-0.0309 -0.0741 -0.1865
0.0218 -0.0310 -0.1955
-0.0113 -0.0732 -0.1814
-0.4332 -0.3923 -0.3081
-0.3984 -0.9713 -0.5798
0.0042 -0.1257 -0.2109
0.0068 0.0019 -0.2029
-0.6493 -1.7236 -0.9847
-0.4582 -1.2238 -0.6075
-0.0726 -0.1886 -0.2023
-0.6619 -1.7344 -0.6310
-0.7630 -0.6753 -0.4370
-0.7902 -0.7147 -0.6088
0.1274 -1.5293 -1.4005
-0.7060 -1.1819 -0.4087
-1.0740 -1.4133 -0.5453
-0.8288 -1.1599 -0.6102
-0.6094 -1.1149 -0.7640
-0.5953 -0.8654 -0.3695
-0.7532 -1.2638 -0.4753
-0.6874 -0.6884 -0.6576
-0.1372 -0.7656 -0.5203
-0.0677 -1.0098 -0.5483
-0.0033 0.0395 -0.2147
-0.0631 -0.0380 -0.2170
-0.0749 -0.2018 -0.2854
-0.0347 -0.1638 -0.2456
-0.0035 -0.0084 -0.2213
-0.0019 0.0390 -0.2154
0.0020 -0.0075 -0.2188
0.0008 0.0218 -0.1753
-0.0500 -0.1311 -0.1919
-0.1278 -0.0980 -0.2497
0.0084 0.0419 -0.2113
0.0092 0.0431 -0.2125
-0.0229 -0.0469 -0.2334
-0.0414 -0.0493 -0.2308
0.0115 0.0259 -0.2032
-0.0035 -0.0292 -0.1415
-0.0055 -0.0801 -0.1451
-0.0186 -0.0850 -0.1509
-0.1145 -0.0915 -0.2068
-0.1078 -0.0902 -0.1897
-0.3185 -1.2295 -0.5530
-0.0608 -0.0268 -0.2499
0.0085 0.0068 -0.1944
-0.0019 -0.0594 -0.1462
0.0100 0.0419 -0.2112
-0.0033 -0.0681 -0.2809
-0.1636 -0.1414 -0.2361
-0.0197 -0.0504 -0.1815
0.0014 0.0012 -0.1834
-0.0675 -0.0071 -0.2272
-0.0206 -0.0410 -0.1548
-0.0858 -0.0709 -0.2365
-0.0504 -0.0032 -0.2538
0.0021 -0.0341 -0.1879
-0.0033 -0.0677 -0.2863
-0.0971 -0.2327 -0.2785
-0.3712 -0.6968 -0.3235
-0.3060 -0.6598 -0.2257
-0.2664 -0.7049 -0.4165
-0.5359 -0.7171 -0.4699
-0.0346 -0.0507 -0.2748
-0.2978 -0.5753 -0.2495
-0.0218 0.0256 -0.2314
-0.3401 -0.7033 -0.3242
-0.3058 -0.6890 -0.4069
-0.2670 -0.7255 -0.4413
-0.4884 -0.6814 -0.3205
-0.4937 -0.6934 -0.3677
-0.2998 -0.7436 -0.3579
-0.3146 -0.6380 -0.1068
-0.4675 -1.1650 -0.1053
-0.4717 -0.4714 -0.2550
-0.2615 -0.5027 -0.2183
-0.3295 -0.6662 -0.1232
-0.4240 -0.9334 -0.1452
-0.3414 -0.6311 -0.1304
-0.3445 -0.7305 -0.2581
-0.4401 -1.0791 -0.1974
-0.1311 -0.7367 -0.2267
-0.2041 -1.3446 -0.6577
-0.0364 -0.0543 -0.2859
-0.0013 -0.1098 -0.1811
-0.1165 -0.0672 -0.2090
-0.0132 -0.0269 -0.1758
-0.0287 0.0189 -0.2229
-0.0848 -0.6752 -0.1748
-0.7281 -0.6566 -0.2019
-0.4785 -0.4588 -0.3839
-0.4194 -0.5814 -0.5452
-0.0092 0.0260 -0.2333
-0.7231 -0.6848 -0.4628
-0.6774 -0.6712 -0.5201
-0.6713 -0.7049 -0.5659
-0.8635 -1.0963 -0.6756
-0.2920 -0.7726 -0.5635
-0.4351 -0.6992 -0.1178
-0.6333 -1.1793 0.0433
-0.1987 -0.7237 -0.1096
-0.4248 -0.6815 -0.1493
-0.5924 -1.0136 -0.0207
-0.2220 -0.4225 -0.1467
-0.4250 -0.8546 -0.0413
-0.1619 -0.4326 -0.1394
-0.4189 -0.6701 -0.1785
-0.3922 -0.6799 -0.1782
-0.0749 -0.4387 -0.1346
-0.3924 -0.7897 -0.0792
-0.2042 -0.7351 -0.1721
-0.3619 -1.0192 -0.1062
-0.0533 -0.6380 -0.2117
-0.4139 -0.7143 -0.3256
-0.0572 -0.6742 -0.1730
-0.3326 -0.7447 -0.5456
-0.2573 -0.7601 -0.5316
0.0084 0.0258 -0.1361
0.0102 0.0228 -0.1429
0.0013 0.0085 -0.2435
-0.3443 -0.9224 0.1840
-0.5125 -0.6844 -0.4283
-0.4851 -0.7094 -0.4100
-0.3071 -0.6573 -0.2509
-0.5498 -0.7244 -0.4143
-0.6374 -0.7059 -0.1290
-0.1273 -0.5076 -0.4199
0.0080 -0.0059 -0.1332
0.0072 0.0244 -0.1544
0.0114 0.0302 -0.1585
0.0072 0.0089 -0.1497
0.0087 0.0087 -0.1496
0.0107 0.0352 -0.1498
0.0107 0.0318 -0.1515
0.0073 0.0291 -0.1658
-0.1643 -0.1634 -0.0492
-0.1598 -0.1413 -0.1027
0.0040 0.0213 -0.1805
0.0063 0.0037 -0.1608
0.0101 0.0530 -0.1998
0.0094 0.0053 -0.1630
0.0073 0.0281 -0.1710
0.0091 0.0159 -0.1669
0.0082 0.0177 -0.1686
-0.0091 -0.0527 -0.1357
-0.0240 0.0035 -0.1938
0.0035 0.0386 -0.2045
-0.7097 -0.7074 -0.5676
-0.4611 -0.8385 -0.2091
-0.1110 -0.1012 -0.1183
-0.2783 -0.2399 -0.1605
0.0122 0.0195 -0.2258
0.0082 -0.0357 -0.2093
-0.6477 -0.6545 -0.3638
-0.0193 0.0281 -0.2357
-0.1271 -0.7490 -0.5405
0.0064 0.0271 -0.2305
0.0116 0.0419 -0.2319
-0.7298 -0.6816 -0.2559
-0.0647 -0.2399 -0.0597
-0.0079 -0.0159 -0.1412
-0.0075 -0.0146 -0.1432
0.0010 -0.0097 -0.1539
-0.0295 -0.0876 -0.1261
0.0051 -0.0214 -0.1938
-0.0213 -0.0522 -0.2291
-0.0120 -0.0037 -0.1648
-0.2047 -0.7453 -0.2258
-0.5863 -0.7847 -0.0839
0.0131 0.0460 -0.2133
-0.0109 -0.1116 -0.1845
0.0002 -0.0366 -0.1448
0.0000 -0.0373 -0.1469
-0.0616 -0.7177 -0.2405
-0.4301 -1.0778 0.1796
-0.2861 -0.6416 -0.0831
-0.1209 -0.5376 -0.0269
-0.2982 -0.6527 -0.1831
-0.0831 -0.3513 -0.1923
-0.1229 -0.1059 -0.1241
-0.0120 -0.1456 -0.2150
0.0029 -0.0557 -0.1425
-0.0643 -0.0504 -0.2242
-0.0267 -0.0201 -0.1591
-0.0206 -0.0891 -0.1098
-0.0128 -0.0536 -0.1410
-0.0120 -0.0345 -0.2411
-0.1056 -0.1046 -0.1745
-0.1084 -0.1428 -0.2573
-0.0068 -0.0089 -0.1422
-0.2687 -0.3247 -0.2120
-0.4462 -1.0247 0.1500
-0.5147 -0.8835 0.0415
-0.5962 -1.1156 0.0807
-1.1053 -2.3646 0.1137
-0.0780 -0.6759 -0.0922
0.0067 0.0150 -0.2007
-0.1653 -1.0284 0.1187
-0.1020 -1.4631 -0.0310
0.0107 0.0194 -0.2148
0.0090 -0.0022 -0.2429
-0.0984 -0.1334 -0.1680
-0.0443 -0.1972 -0.1601
-0.0633 -0.0714 -0.1671
-0.1571 -1.1654 -0.4009
-0.1350 -0.9516 -0.4627
-0.3567 -0.9242 0.2697
-1.7144 -1.7952 0.7900
-1.7312 -1.6418 0.7084
0.0073 0.0447 -0.2248
-0.0133 -0.0455 -0.1641
-0.1178 -1.1781 0.2783
-1.8094 -1.8843 0.6748
-0.8029 -1.1113 0.2640
-0.4538 -1.3145 0.2057
-0.4051 -0.9761 -0.0431
-0.7072 -0.6827 -0.4675
-0.0030 -0.0957 -0.1083
-0.0012 -0.0454 -0.1431
-0.0025 -0.0445 -0.1440
-0.0032 -0.1011 -0.1380
0.0047 -0.0139 -0.1473
-0.0821 -0.1791 -0.3723
-0.2695 -1.5257 0.2586
-1.7111 -1.6443 -0.8876
-0.3602 -0.7940 -0.1129
-0.8992 -2.3585 0.5148
-1.9961 -1.8519 -0.1900
0.0138 0.0392 -0.2248
-1.0939 -1.0095 -0.5877
-0.9781 -0.9947 -0.6075
-0.7977 -1.0033 0.2001
-0.0696 -0.9755 0.0331
-0.4856 -0.8194 -0.1081
-0.6062 -1.1804 -0.3793
-0.2953 -0.7437 0.1306
-1.1292 -1.0333 0.2543
-0.6486 -0.8530 0.1354
-0.2702 -0.6776 0.0502
-1.0488 -1.0397 0.0674
0.0110 0.0385 -0.2185
-0.6502 -0.5838 -0.1810
-0.1418 -1.3722 0.2841
-0.0327 -0.0753 -0.1116
-0.3953 -0.9378 0.2537
-0.3341 -0.9182 0.2193
-0.6176 -1.1934 -0.4217
-0.4234 -1.0870 0.2957
-0.5919 -0.8410 0.1497
-0.0899 -0.9648 0.1017
-0.6309 -0.8369 -0.4645
-0.8370 -0.7345 -0.5016
-0.4997 -0.9334 -0.1025
-0.0697 -1.1959 0.2793
-0.4736 -0.9204 0.2593
-0.4867 -1.0449 0.2997
-1.9200 -1.9664 0.2359
-0.3207 -0.6432 -0.1559
-0.4553 -0.9844 -0.2599
-0.3170 -2.6779 -0.7525
-0.5573 -1.2595 -0.5582
-1.1372 -1.1753 -0.2208
-0.6334 -0.5966 -0.1037
-1.6944 -1.5629 -0.9913
-1.0153 -1.0229 0.2678
-0.1593 -1.4461 -0.0269
-0.5782 -1.1402 -0.2809
-0.9896 -0.9623 0.4244
-0.5687 -1.1275 -0.2371
-0.6364 -0.6062 0.0026
-0.5533 -0.7401 -0.3652
-1.0508 -2.2950 0.5369
-0.8446 -1.0536 0.1095
-0.1369 -1.2367 0.0213
-1.8520 -1.9946 0.0645
-0.5336 -0.9467 -0.3577
-0.1669 -1.1164 0.3417
-0.3397 -1.1368 0.1585
-0.4117 -1.1213 0.1638
-0.4003 -0.9841 0.0815
-0.0040 -0.0280 -0.1498
-0.1094 -1.1422 0.3115
-0.6685 -2.3374 -0.3888
-0.3748 -0.7934 -0.3260
-0.4815 -1.0535 0.3803
-0.1463 -1.1126 -0.2643
-0.9884 -2.1964 0.7547
-0.9861 -1.0401 0.2240
-0.2179 -2.5290 0.3156
-0.4702 -1.1502 0.4102
-0.5135 -0.9851 0.2019
-0.4155 -1.1708 0.4026
-0.0977 -0.6587 0.0157
0.0041 -0.0425 -0.1281
-0.0068 -0.0387 -0.1474
-0.0637 -0.1327 -0.3120
-0.0012 -0.0409 -0.1572
-0.0027 -0.0414 -0.1582
0.0016 -0.0410 -0.1602
-0.0365 -0.2560 -0.4022
0.0006 -0.0405 -0.1629
-0.0040 -0.0181 -0.1538
-0.0271 -0.1007 -0.3277
0.0009 -0.0175 -0.1418
-0.0670 -0.0788 -0.1290
0.0039 -0.0254 -0.1502
-0.1983 -0.2972 -0.1613
-0.1071 -0.9078 -0.3092
-1.1317 -2.3322 -0.8851
-0.3412 -0.7195 -0.3008
-0.1069 -1.3220 -0.1325
-0.7088 -2.3303 0.8408
-2.0400 -1.8418 -1.0399
-0.0200 -0.0195 -0.1568
-0.6905 -0.6950 -0.4905
-0.1124 -1.5211 0.2440
-0.1991 -0.9339 0.1026
-0.3720 -0.6578 -0.3292
-0.4852 -0.8983 -0.0331
-1.1040 -1.0213 -0.4480
-0.0804 -0.6780 -0.1192
-1.0781 -1.1783 -0.1702
-0.4248 -0.9304 -0.1813
-1.7858 -2.3299 0.6385
-0.4242 -0.8681 0.1112
-0.0110 -0.0664 -0.1184
-0.3571 -0.3108 -0.1247
-0.0236 -0.0339 -0.1254
-0.0645 -0.1418 -0.2880
-0.0654 -0.0602 -0.1606
0.0022 -0.0354 -0.1587
0.0020 -0.0229 -0.1529
-0.0497 -0.0562 -0.1152
-0.8576 -0.8000 -0.0308
0.0050 -0.0136 -0.1401
-0.0460 -0.3388 -0.1900
-0.1004 -0.1002 -0.0946
-0.0028 -0.0245 -0.1399
-0.0250 -0.0227 -0.1272
-0.0005 -0.0268 -0.1326
-0.0389 -0.1493 -0.1713
-0.0038 -0.0028 -0.1423
-0.0003 -0.0240 -0.1423
0.0034 -0.0096 -0.1429
-0.0009 -0.0228 -0.1466
-0.0376 -0.2215 -0.2666
-0.0378 -0.2123 -0.2870
-0.0628 -0.1226 -0.2769
-0.2353 -0.2387 -0.0963
-0.0024 -0.0031 -0.1411
-0.0013 -0.0248 -0.1386
-0.0707 -0.0523 -0.2503
0.0032 -0.0059 -0.1600
-0.4213 -0.9449 0.0054
-0.1923 -0.9271 -0.0402
-0.2233 -1.6966 -0.4443
-0.0216 -0.0200 -0.1520
-0.6848 -0.6282 -0.4130
-1.2228 -1.1945 -0.2035
-0.6608 -0.6534 -0.1202
-0.6162 -0.6150 -0.0238
-0.1023 -0.7398 -0.2684
-1.0228 -1.1500 -0.7883
-0.3513 -0.8513 0.0149
-0.2884 -0.6615 0.0260
-0.3668 -0.9215 -0.0327
-0.1266 -0.2774 -0.2952
-0.1574 -0.3807 -0.1330
-0.1263 -0.2717 -0.3023
-0.0023 -0.0713 -0.1666
-0.0656 -0.0617 -0.1552
-0.2341 -0.2563 -0.0825
-0.0726 -0.7382 -0.2711
-0.0049 -0.0650 -0.1298
0.0000 -0.0329 -0.1371
-0.0104 -0.0882 -0.2045
-0.0281 -0.0257 -0.1449
-0.1812 -0.1535 -0.2425
-0.0026 -0.0685 -0.1579
-0.0269 -0.0689 -0.1668
-0.0182 -0.0215 -0.1431
-0.5514 -0.6944 -0.4624
-0.7542 -0.7424 0.0807
-0.0279 -0.1824 -0.1187
-0.3625 -0.6501 -0.2457
-0.6284 -0.7750 0.0114
-0.0905 -1.5199 0.2250
-0.1731 -0.9754 -0.2953
-0.1872 -0.9336 0.1324
-0.4499 -0.8350 0.0604
-0.8491 -0.8596 -0.5753
-0.3667 -0.6406 -0.3758
-0.1176 -0.9631 0.1022
-0.3200 -0.7444 -0.2189
-0.4812 -0.6339 -0.4419
-0.7803 -0.7121 -0.5438
-0.8663 -0.7908 -0.5424
-0.2157 -0.6507 -0.3717
-0.3159 -0.6637 -0.3351
-0.6447 -0.6282 -0.3061
-0.4569 -0.8331 -0.1751
-0.3632 -0.6774 -0.0665
-0.4801 -0.6424 -0.3392
-0.2787 -0.8878 -0.2259
-0.2096 -0.9875 -0.1181
-0.2327 -0.9083 -0.0768
-0.1458 -0.1377 -0.0893
-0.7530 -0.6614 -0.1243
-0.1082 -0.0931 -0.1747
-0.0072 -0.1050 -0.1791
-0.0518 -0.1836 -0.2142
-0.1463 -0.1383 -0.0950
-0.0430 -0.1002 -0.2552
-0.0436 -0.1823 -0.2216
-0.1436 -0.1655 -0.1473
-0.2736 -0.6697 -0.2914
-0.3807 -0.7857 -0.4769
-0.5039 -0.6444 -0.3433
-0.3162 -0.6534 -0.0002
-0.5312 -0.9083 0.0112
-0.2504 -0.6489 -0.0002
-0.6397 -0.6068 -0.0232
-0.5526 -0.7140 -0.2880
-0.3194 -0.2833 -0.2364
-0.3234 -0.2848 -0.2748
-0.2043 -0.4981 -0.1991
-0.7032 -0.6646 -0.0579
-0.2931 -0.6661 0.0011
-0.3732 -0.7197 -0.2985
-0.3154 -0.6571 0.0270
-0.2292 -0.6793 -0.4361
-0.3797 -0.6407 -0.1780
-0.0483 -0.6739 -0.0681
-0.3109 -0.6387 -0.0303
-0.7473 -0.6438 -0.3995
-0.7146 -0.6291 -0.4405
-0.6483 -0.6277 -0.3596
-0.7280 -0.7122 -0.3373
-0.3732 -0.7293 -0.2429
-0.8191 -0.8048 -0.0343
-0.6594 -0.6539 -0.0911
-0.7196 -0.6923 -0.4552
-0.3766 -0.6386 -0.1523
-0.5434 -0.8545 -0.1028
-0.5012 -0.6337 0.0520
-0.2575 -0.6900 0.0412
-0.1731 -0.1598 -0.1802
-0.4684 -0.6342 -0.2677
-0.2846 -0.6531 -0.2836
-0.3793 -0.3501 -0.2549
-0.5018 -0.6447 -0.3170
-0.7605 -0.7011 -0.3947
-0.5377 -0.7096 -0.4291
-0.4936 -0.6484 -0.4793
-0.5561 -0.6977 -0.4942
-0.5860 -0.6547 -0.5145
-0.4324 -0.6759 -0.5064
-0.5300 -0.6551 -0.1295
-0.7586 -0.7009 -0.3633
-0.2450 -0.6569 -0.3182
-0.1330 -0.8683 -0.0305
-0.7494 -0.7823 0.0240
-0.6022 -0.6189 -0.3118
-0.0749 -0.6822 -0.4164
-0.2662 -0.6722 -0.0990
-0.5623 -0.6168 -0.1345
-0.8243 -0.7658 -0.1775
-0.6341 -0.6626 -0.0923
-0.2652 -0.6538 -0.1598
-0.3009 -0.7289 -0.3113
-0.4920 -0.8091 -0.2995
-0.7907 -0.7317 -0.2115
-0.4450 -0.6485 -0.1923
-0.3876 -0.6174 -0.0531
-0.5045 -0.6949 -0.4836
-0.3458 -0.8304 -0.3879
-0.3459 -0.7139 -0.3834
-1.0384 -1.3815 0.1790
-0.3070 -0.2784 -0.0929
-0.3075 -0.2770 -0.1173
-0.1469 -0.1303 -0.1541
-0.1866 -0.2393 -0.1906
-0.4106 -0.6398 -0.1999
-0.6448 -0.6353 -0.2244
-0.5487 -0.7080 -0.2739
-0.1110 -0.6726 -0.2243
-0.2096 -0.2138 -0.2140
-0.2835 -0.6561 -0.2587
-0.2877 -0.2800 -0.2127
-0.3031 -0.7477 -0.3009
-0.3245 -0.7331 -0.3819
-0.4693 -0.6252 -0.3625
-0.6194 -0.6303 -0.3888
-0.2554 -0.5745 -0.3629
-0.6843 -0.6955 -0.4270
-0.0533 -0.6624 -0.3574
-0.6521 -0.6952 -0.4595
-0.5742 -0.6463 -0.4880
-0.3272 -0.7139 -0.4418
-0.3685 -0.6759 -0.5090
-0.3179 -0.6863 -0.5254
-0.0654 -0.6977 -0.4726
-0.3090 -0.7643 -0.6086
-0.2406 -0.6786 -0.5409
-0.0874 -0.6652 -0.2344
-0.1608 -0.7583 -0.5125
-0.2961 -0.7377 -0.5287
-0.2062 -0.6889 -0.5001
-0.2250 -0.6494 -0.4757
-0.1943 -0.6581 -0.4523
-0.1043 -0.6707 -0.4340
-0.2228 -0.6497 -0.4485
-0.1153 -0.7598 -0.4690
-0.2808 -0.7242 -0.4026
-0.2187 -0.6578 0.0284
-0.1237 -0.6626 -0.3222
-0.1845 -0.6642 -0.3235
-0.2142 -0.6586 -0.3203
-0.2146 -0.6672 -0.2947
-0.4038 -0.7570 -0.0034
-0.1339 -0.6713 -0.0322
-0.3543 -0.7661 -0.2505
-0.2382 -0.6614 -0.1853
-0.3246 -0.6486 -0.1817
-0.2556 -0.6488 -0.0792
-0.2271 -0.6555 -0.0795
-0.1087 -0.6776 -0.0889
-0.2928 -0.7344 -0.5432
-0.3212 -0.7184 -0.4947
-0.4586 -0.7220 -0.4959
-0.3698 -0.6337 -0.0772
-0.6255 -0.7193 -0.1946
-0.5855 -0.6986 -0.4639
-0.5895 -0.6094 -0.1924
-0.5790 -0.7184 -0.0417
-0.5548 -0.6163 -0.0281
-0.5974 -0.6417 -0.4007
-0.3909 -0.6449 -0.2746
-0.3649 -0.6479 -0.2967
-0.3281 -0.6518 -0.2009
-0.4075 -0.7272 -0.2689
-0.2756 -0.6745 -0.2157
-0.5932 -0.6386 -0.3719
-0.5048 -0.7229 -0.2611
-0.5160 -0.6346 -0.2023
-0.2837 -0.6453 -0.4475
-0.3771 -0.6470 -0.4509
-0.0554 -0.6726 -0.1455
-0.4240 -0.6311 -0.0227
-0.5670 -0.6399 -0.4582
-0.4641 -0.6445 -0.0452
-0.3440 -0.6475 -0.3998
-0.4330 -0.7018 -0.3484
-0.3544 -0.6612 -0.4638
-0.5153 -0.7600 -0.5042
-0.2852 -0.6723 -0.4046
-0.3964 -0.6341 -0.0244
-0.4059 -0.6357 -0.1760
-0.4746 -0.7013 -0.4571
-0.0598 -0.6734 -0.2008
-0.0820 -0.7627 -0.4406
-0.0881 -0.7350 -0.4476
-0.3978 -0.6272 -0.1260
-0.4502 -0.6304 -0.3944
-0.0469 -0.6705 -0.0412
-0.0152 -0.0438 -0.1647
-0.1123 -0.7397 -0.3874
-0.6182 -0.6323 -0.3352
-0.7224 -0.6540 -0.0879
-0.3838 -0.3440 -0.1529
-0.2402 -0.2128 -0.2123
-0.1682 -0.2147 -0.2167
-0.5299 -0.7158 -0.2867
-0.6881 -0.6365 -0.3319
-0.5845 -0.6314 -0.3368
-0.6539 -0.6320 -0.3878
-0.7744 -0.6828 -0.4200
-0.5493 -0.6972 -0.4036
-0.3333 -0.7438 -0.4396
-0.7662 -0.6522 -0.4872
-0.7311 -0.7299 -0.5327
-0.2142 -0.6901 -0.5421
-0.1231 -0.7288 -0.5564
-0.0957 -0.7298 -0.5576
-0.0984 -0.7601 -0.5474
-0.1624 -0.7517 -0.5416
-0.1270 -0.7609 -0.5154
-0.1988 -0.6556 -0.5063
-0.0930 -0.7662 -0.4873
-0.1932 -0.7514 -0.5087
-0.1184 -0.7280 -0.4744
-0.1345 -0.6580 -0.4560
-0.1846 -0.7286 -0.4701
-0.2922 -0.7480 -0.5183
-0.1788 -0.7198 -0.4560
-0.2871 -0.7461 -0.4871
-0.6122 -0.6866 -0.4907
-0.1786 -0.7333 -0.4296
-0.1102 -0.7648 -0.4094
-0.6636 -0.6599 -0.0617
-0.1856 -0.6584 -0.3444
-0.7029 -0.6629 -0.0875
-0.2854 -0.3520 -0.1438
-0.1717 -0.7411 -0.2929
-0.3367 -0.6470 -0.3235
-0.1502 -0.6644 -0.2659
-0.2041 -0.7444 -0.2597
-0.0866 -0.6746 -0.1985
-0.2082 -0.6659 -0.1877
-0.3606 -0.6498 -0.2216
-0.5821 -0.6363 -0.1918
-0.0925 -0.7334 -0.5070
-0.1211 -0.6841 -0.2299
-0.4723 -0.7238 -0.2638
-0.2341 -0.3659 -0.1656
-0.6283 -0.7235 -0.1524
-0.4485 -0.6596 -0.1147
-0.2970 -0.3561 -0.2919
-0.0782 -0.7448 -0.3308
-0.4233 -0.6737 -0.0623
-0.5116 -0.7113 -0.4290
-0.4577 -0.6468 -0.3409
-0.0494 -0.6605 -0.0928
-0.4953 -0.6647 -0.1068
-0.4441 -0.7050 -0.4605
-0.1695 -0.6572 -0.5092
-0.5132 -0.7094 -0.4576
-0.2638 -0.7434 -0.5799
-0.0258 -0.0858 -0.1353
0.0047 -0.0139 -0.1482
-0.0017 -0.0420 -0.1256
-0.6675 -0.7270 -0.2816
-0.0765 -0.7296 -0.2181
-0.8124 -0.7248 -0.3340
-0.1204 -0.7238 -0.2393
-0.3399 -0.8247 -0.3281
-0.3024 -0.7246 -0.3403
-0.3613 -0.8046 -0.4153
-0.7456 -0.6827 -0.4508
-0.6851 -0.6929 -0.4567
-0.5808 -0.6969 -0.4327
-0.5531 -0.6991 -0.4341
-0.6159 -0.6937 -0.4609
-0.6435 -0.6817 -0.4872
-0.3253 -0.7167 -0.4149
-0.3481 -0.8112 -0.4956
-0.3366 -0.7324 -0.4757
-0.3529 -0.8120 -0.5634
-0.4506 -0.7692 -0.5970
-0.3149 -0.7181 -0.5181
-0.3694 -0.7474 -0.5465
-0.0787 -0.7699 -0.5243
-0.2026 -0.7473 -0.2173
-0.7303 -0.7144 -0.3077
-0.6167 -0.7111 -0.2838
-0.2707 -0.7383 -0.2542
-0.7451 -0.7237 -0.3979
-0.2698 -0.7197 -0.3138
-0.4998 -0.6984 -0.3991
-0.2414 -0.7279 -0.3461
-0.1066 -0.7395 -0.3283
-0.2442 -0.7241 -0.3760
-0.2096 -0.7294 -0.3781
-0.5886 -0.6986 -0.4942
-0.3527 -0.7170 -0.4398
-0.3773 -0.6991 -0.4634
-0.3508 -0.7087 -0.4677
-0.1673 -0.8317 -0.4765
-0.5240 -0.6982 -0.5182
-0.3506 -0.7037 -0.4938
-0.0854 -0.7465 -0.4203
-0.1288 -0.7522 -0.5435
-0.1583 -0.7208 -0.5556
-0.5397 -0.7352 -0.2290
-0.4730 -0.6253 -0.0313
-0.0243 -0.0672 -0.1384
-0.0099 -0.0351 -0.1391
-0.0293 -0.0322 -0.1569
-0.2653 -0.6589 -0.5312
-0.5033 -0.7403 -0.5520
-0.3747 -0.6898 -0.4917
-0.1868 -0.7539 -0.4126
-0.2823 -0.7098 -0.4902
-0.2590 -0.8731 -0.5399
-0.2518 -0.7176 -0.4944
-0.1271 -0.7899 -0.4547
-0.2642 -0.7414 -0.5326
-0.0052 -0.0211 -0.1553
-0.0009 -0.0024 -0.1454
-0.3986 -0.6761 -0.5029
-0.3058 -0.6658 -0.5210
-0.1443 -0.7907 -0.4913
-0.0701 -0.7268 -0.4522
-0.1682 -0.6504 -0.5334
-0.1728 -0.7780 -0.5639
-0.4859 -0.7682 -0.5141
-0.2949 -0.7481 -0.4640
-0.3324 -0.9459 -0.5449
-0.1473 -0.7296 -0.4141
-0.1538 -0.7448 -0.4450
-0.2592 -0.8241 -0.5475
-0.1137 -0.8411 -0.5286
-0.6700 -0.6597 -1.4920
-0.3457 -0.8749 -1.2908
-0.6621 -0.5276 -1.4654
-0.0446 -0.1378 -0.6758
-0.0208 -0.0885 -0.1680
-0.9641 -0.8208 -1.6204
-0.7022 -0.9391 -1.5221
-0.7022 -0.5549 -1.5877
-0.8605 -0.7195 -1.6479
-0.1404 -0.9962 -0.3973
-0.1536 -0.8863 -0.5566
0.0649 -0.1488 -0.6353
-0.5322 -0.6162 -0.2349
-0.1988 -0.1781 -0.1383
-0.4461 -0.6439 -0.2149
0.0660 -0.1422 -0.6211
-0.2758 -0.2829 -0.2139
-0.3088 -0.2849 -0.2373
-0.5654 -0.6185 -0.1620
0.0085 -0.0285 -0.4717
-0.5509 -0.7030 -0.3752
-0.0717 -0.1754 -0.4951
0.0246 -0.1826 -0.4465
-0.3655 -0.7211 -0.3270
-0.0254 -0.5208 -0.4412
-0.1462 -0.5415 -0.5122
-0.0452 -0.5174 -0.5165
-0.0279 -0.5043 -0.5026
-0.1635 -0.2269 -0.8685
-0.0188 -0.0213 -0.0067
-0.0208 -0.0434 0.0067
-0.0435 -0.0453 -0.0069
-0.0179 -0.0417 -0.0194
-0.0115 -0.0374 -0.0042
-0.0101 -0.0454 -0.0105
-0.0093 -0.0278 -0.0093
-0.0196 -0.0510 -0.0219
-0.0174 -0.0490 0.0043
-0.0174 -0.0198 -0.0033
-0.0165 -0.0219 -0.0100
-0.0393 -0.1441 -0.0075
-0.2730 -1.1284 -0.5052
-0.0205 -0.0658 -0.0529
-0.0605 -0.0849 -0.0400
-0.0533 -0.0704 -0.0521
-0.0085 -0.0703 -0.0200
-0.0338 -0.0977 -0.0556
-0.0354 -0.2631 -0.0900
-0.0649 -0.3328 -0.0277
-0.0128 -0.0683 -0.0155
-0.0869 -0.1244 -0.0189
-0.0569 -0.0927 -0.0550
-0.0123 -0.0219 -0.0035
-0.1065 -0.1224 -0.0214
-0.0099 -0.0216 -0.0016
-0.0097 -0.0211 -0.0035
-0.0099 -0.0225 -0.0038
-0.0180 -0.0223 -0.0093
-0.0112 -0.0235 -0.0060
-0.0097 -0.0177 -0.0049
-0.0105 -0.0221 -0.0049
-0.0100 -0.0208 -0.0053
-0.0178 -0.0804 0.0003
-0.2046 -0.2215 -0.1447
-0.0053 -0.0703 -0.0436
-0.0147 -0.0455 -0.0148
-0.0069 -0.0653 -0.0114
-0.0197 -0.1563 -0.0315
-0.1840 -0.2450 -0.1597
-0.0549 -0.0728 -0.0008
-0.0142 -0.0773 -0.0056
-0.0403 -0.0786 0.0030
-0.0380 -0.0707 -0.0195
-0.0539 -0.0661 -0.0241
-0.0714 -0.1751 0.0149
-0.0283 -0.0371 -0.0113
-0.0120 -0.0252 -0.0049
-0.0508 -0.0641 0.0059
-0.0169 -0.0633 -0.0105
-0.1495 -0.3730 0.0945
-0.0360 -0.1036 -0.0380
-0.0974 -0.1104 -0.0268
-0.0291 -0.0369 -0.0163
-0.0705 -0.0856 -0.0288
-0.0254 -0.0330 -0.0258
-0.1775 -0.2606 -0.0356
-0.0570 -0.0645 -0.0276
-0.1059 -0.1450 -0.0315
-0.0143 -0.0560 -0.0245
-0.0375 -0.1054 -0.0164
-0.0220 -0.1604 -0.1167
-0.0684 -0.2331 -0.1250
-0.0099 -0.0425 -0.0421
-0.0271 -0.0544 -0.0369
-0.0139 -0.0689 -0.0165
-0.0527 -0.1457 -0.0212
-0.0746 -0.2042 -0.0598
-0.0048 -0.0359 -0.0376
-0.0428 -0.1338 -0.1125
-0.0091 -0.0430 -0.0277
-0.0326 -0.0658 -0.0322
-0.0676 -0.1117 -0.0420
-0.0618 -0.0755 -0.0419
-0.0240 -0.0452 -0.0469
-0.1365 -0.1877 -0.0811
-0.1976 -0.2079 0.0016
-0.0795 -0.1114 -0.1056
-0.0340 -0.0597 -0.0527
-0.0151 -0.0302 -0.0420
-0.0957 -0.1145 -0.0709
-0.0284 -0.0869 -0.0336
-0.0735 -0.0870 -0.0395
-0.1289 -0.1459 -0.0403
-0.0312 -0.0917 -0.0439
-0.0166 -0.0508 -0.0348
-0.0998 -0.1378 -0.0277
-0.0305 -0.1584 -0.0715
-0.0213 -0.0397 -0.0475
-0.4530 -1.2821 -0.4823
-0.2364 -0.6598 -0.1791
-0.7902 -1.2502 -0.3356
-0.4252 -0.9807 -0.0373
-0.4136 -0.9602 -0.0726
-0.3781 -0.9716 -0.0703
-0.3476 -1.0122 -0.0649
-0.0967 -1.3439 -0.4211
-0.3461 -0.8243 -0.0086
-0.0699 -0.9333 -0.1155
-0.0338 -0.9368 -0.1138
-0.0432 -1.3374 -0.4157
-0.5870 -0.8971 -0.2460
-0.5469 -1.3350 0.3306
-0.6455 -1.3084 0.2731
-0.5415 -1.3215 0.2149
-0.0546 -1.0449 0.1133
-0.0616 -0.9873 -0.3806
-0.0843 -1.0274 -0.0494
-0.0384 -0.9372 -0.0408
-0.0720 -0.9390 -0.0790
-0.0677 -0.9340 -0.1527
-0.5170 -1.3599 0.2745
-0.0298 -0.0781 0.0020
-0.0226 -0.9768 -0.3742
-0.2040 -0.2290 0.0269
-0.0644 -1.0186 -0.3522
-0.4785 -0.9809 0.1073
-0.2725 -0.6898 -0.2619
-0.2951 -0.7367 -0.2207
-0.8611 -1.1728 0.1871
-0.5131 -1.3096 -0.1449
-0.3700 -0.9648 -0.1400
-0.1475 -1.3582 0.3210
-0.0859 -1.0555 0.1839
-0.8803 -1.2569 0.1893
-0.4205 -0.9515 0.0689
-0.4417 -0.9925 0.1117
-0.3373 -0.9222 -0.4325
-0.3877 -0.8327 0.0205
-0.0969 -0.1155 -0.0236
-0.0942 -0.1950 -0.0723
-0.5374 -0.8821 -0.3992
-0.3388 -0.5857 -0.3195
-0.5737 -0.8944 -0.3766
-0.4012 -0.6872 -0.3902
-0.3408 -0.5864 -0.3003
-0.1956 -0.7618 -0.3394
-0.0094 -0.0361 -0.0213
-0.5520 -0.8679 -0.4323
-0.5698 -0.6662 -0.1290
-0.7013 -0.8040 -0.0202
-0.3487 -0.8242 0.0218
-0.2189 -0.6843 -0.1137
-0.4225 -0.9910 -0.1446
-0.2196 -0.6671 -0.1876
-0.5992 -0.6978 -0.4413
-0.3244 -0.7893 -0.0957
-0.8356 -0.9391 -0.5252
-0.9191 -1.0144 0.0692
-0.3872 -0.9837 -0.0347
-0.3329 -0.7416 -0.2196
-0.3981 -0.6846 -0.4142
-0.2669 -0.9100 -0.1679
-0.2725 -0.7089 -0.3670
-0.5057 -0.5810 -0.2463
-0.4064 -1.0291 0.0041
-0.2791 -0.7662 -0.1472
-0.2053 -0.6877 -0.3439
-0.4682 -0.8012 -0.2944
-0.4417 -0.7889 -0.5052
-0.1472 -0.6982 -0.3681
-0.2408 -0.6695 -0.1639
-0.2272 -0.8028 -0.0873
-0.4451 -0.7733 -0.1050
-0.3424 -0.7564 -0.0959
-0.3005 -0.6917 -0.2638
-0.4971 -0.6025 -0.2753
-0.4473 -0.6733 -0.2172
-0.3497 -0.3764 -0.2892
-0.0184 -0.2756 -0.1829
-0.4336 -0.5425 -0.3213
-0.2309 -0.7277 -0.3182
-0.2229 -0.7142 -0.4664
-0.2406 -0.7481 -0.1442
-0.0947 -0.7087 -0.3661
-0.1445 -0.6908 -0.3926
-0.2629 -0.7359 -0.2452
-0.2700 -0.7502 -0.2216
-0.2031 -0.6715 -0.2341
-0.2771 -0.7247 -0.4006
-0.3686 -0.7032 -0.1884
-0.3234 -0.6767 -0.2144
-0.2911 -0.6737 -0.2842
-0.3595 -0.7165 -0.4298
-0.4708 -0.7184 -0.3123
-0.2445 -0.7541 -0.2478
-0.1475 -0.5846 -0.4147
-0.0235 -0.6471 -0.4169
-0.0256 -0.6139 -0.4217
-0.4183 -0.6623 -0.1020
-0.3990 -0.6886 -0.1517
-0.1341 -0.1380 -0.1074
-0.4801 -0.6222 -0.1820
-0.9750 -0.5780 -0.3426
-0.3493 -0.6739 -0.2401
-0.3516 -0.7172 -0.2477
-0.2945 -0.6784 -0.2373
-0.2003 -0.3584 -0.1756
-0.3493 -0.7155 -0.2732
-0.3712 -0.7018 -0.2966
-0.3615 -0.7489 -0.3342
-0.3954 -0.7669 -0.4236
-0.3241 -0.7016 -0.3944
-0.2763 -0.7086 -0.4179
-0.2020 -0.6857 -0.3976
-0.1186 -0.7010 -0.3674
-0.1736 -0.6913 -0.3951
-0.1952 -0.6576 -0.4129
-0.1731 -0.6935 -0.4229
-0.1438 -0.6873 -0.4166
-0.0906 -0.6803 -0.3843
-0.1900 -0.6738 -0.4392
-0.0595 -0.6600 -0.3768
-0.1690 -0.6640 -0.4352
-0.1169 -0.6826 -0.4130
-0.0858 -0.6622 -0.4053
-0.0607 -0.6880 -0.4128
-0.1156 -0.6822 -0.4394
-0.0298 -0.6557 -0.3996
-0.0837 -0.6979 -0.4459
-0.0564 -0.6511 -0.4243
-0.0249 -0.7080 -0.4456
-0.0026 -0.6255 -0.4106
-0.4029 -0.6854 -0.2961
-0.6021 -0.6714 -0.3892
-0.6379 -0.7142 -0.4496
-0.3634 -0.6687 -0.3870
-0.2042 -0.6697 -0.1828
-0.4708 -0.6895 -0.4389
-0.3694 -0.6816 -0.4161
-0.4647 -0.6828 -0.4617
-0.0186 -0.0588 -0.0512
-0.5988 -0.6474 -0.1861
-0.5723 -0.6433 -0.1840
-0.6246 -0.6832 -0.2114
-0.3962 -0.6333 -0.1837
-0.5599 -0.6757 -0.2560
-0.5121 -0.6530 -0.2746
-0.1676 -0.7006 -0.1898
-0.5490 -0.6653 -0.3045
-0.5678 -0.6817 -0.3333
-0.5138 -0.6591 -0.3263
-0.6043 -0.6708 -0.3634
-0.5470 -0.6646 -0.3535
-0.2330 -0.7131 -0.2599
-0.4061 -0.6551 -0.3146
-0.3978 -0.6793 -0.3179
-0.4300 -0.6992 -0.3491
-0.4091 -0.7023 -0.3525
-0.6004 -0.6705 -0.4156
-0.5754 -0.6709 -0.4120
-0.5156 -0.6688 -0.4068
-0.4161 -0.6782 -0.3685
-0.4041 -0.6978 -0.3745
-0.5938 -0.6644 -0.4579
-0.4046 -0.6690 -0.3971
-0.5705 -0.6649 -0.4541
-0.5443 -0.6724 -0.4618
-0.4220 -0.6596 -0.4226
-0.4938 -0.6811 -0.4607
-0.4165 -0.6840 -0.4241
-0.3716 -0.6859 -0.4444
-0.0633 -0.2050 -0.2102
-0.1122 -0.6854 -0.4591
-0.0551 -0.7000 -0.4618
-0.4205 -0.6774 -0.1511
-0.1592 -0.6856 -0.1089
-0.3556 -0.6783 -0.1482
-0.3225 -0.7315 -0.1452
-0.4216 -0.6820 -0.1770
-0.2425 -0.6727 -0.1339
-0.3047 -0.6937 -0.1685
-0.2090 -0.6619 -0.1639
-0.1881 -0.6908 -0.1682
-0.2082 -0.6918 -0.2109
-0.1797 -0.6723 -0.2076
-0.2354 -0.6681 -0.2561
-0.2053 -0.6912 -0.2639
-0.2510 -0.7057 -0.2838
-0.1930 -0.6495 -0.3021
-0.1201 -0.6862 -0.2843
-0.1493 -0.6951 -0.3148
-0.1444 -0.6785 -0.3362
-0.2356 -0.6907 -0.3844
-0.1716 -0.6761 -0.3633
-0.3825 -0.6802 -0.4739
-0.1144 -0.6863 -0.3892
-0.1749 -0.6614 -0.0777
-0.1416 -0.6468 -0.0754
-0.1685 -0.6799 -0.0892
-0.1365 -0.6769 -0.0871
-0.1477 -0.6786 -0.0998
-0.1047 -0.6697 -0.0956
-0.1320 -0.6616 -0.1275
-0.2112 -0.6899 -0.1587
-0.1399 -0.6967 -0.1426
-0.1116 -0.7098 -0.1400
-0.1731 -0.6940 -0.1565
-0.1463 -0.6759 -0.1555
-0.1035 -0.6915 -0.2382
-0.0712 -0.6802 -0.2602
-0.0598 -0.2080 -0.2219
-0.1521 -0.6942 -0.1524
-0.2141 -0.6684 -0.0881
-0.1605 -0.6909 -0.0799
-0.1244 -0.6625 -0.0789
-0.2452 -0.6764 -0.1157
-0.2780 -0.6861 -0.1415
-0.1892 -0.6882 -0.1388
-0.1549 -0.6996 -0.2361
-0.0649 -0.2215 -0.1846
-1.6252 -0.9447 -1.4184
-0.2224 -0.6932 -0.3367
-0.2087 -0.6704 -0.3814
-0.0178 -0.5791 -0.3902
-0.4439 -0.6756 -0.2475
-0.2761 -0.6962 -0.2127
-0.3825 -0.6905 -0.2686
-0.3261 -0.6900 -0.2650
-0.2431 -0.6991 -0.3112
-0.2676 -0.6936 -0.3362
-0.2576 -0.6722 -0.3554
-0.2595 -0.6808 -0.3832
-0.2321 -0.6851 -0.4077
-0.0639 -0.6906 -0.3597
-0.0506 -0.1306 -0.1772
-0.2449 -0.6824 -0.2112
-0.0020 -0.0289 -0.1602
-0.4380 -0.8006 0.0122
-0.0532 -0.0469 -0.1695
-0.0748 -0.6046 -0.4227
-0.4477 -0.6500 -0.4646
-0.4107 -0.6777 -0.4484
0.0116 -0.6969 -0.3590
-0.3876 -0.6987 -0.3137
-0.6072 -0.6875 -0.1883
-0.2038 -0.7278 -0.1064
-0.2829 -0.7126 -0.2601
-0.2031 -0.6773 -0.2842
-0.1205 -0.6859 -0.3600
-0.3044 -0.7502 -0.1097
-0.2331 -0.6519 -0.1558
-0.3989 -0.7146 -0.2655
-0.2116 -0.6948 -0.2345
-0.2499 -0.6990 -0.2574
-0.1834 -0.6959 -0.3129
-0.2882 -0.6745 -0.4037
-0.2370 -0.6832 -0.4037
-0.2075 -0.6865 -0.3962
-0.2624 -0.6802 -0.4306
-0.2500 -0.7330 -0.0291
-0.6278 -0.7409 -0.0938
-0.3776 -0.6373 -0.1618
-0.5571 -0.6670 -0.2188
-0.2676 -0.3314 -0.1879
-0.3777 -0.6339 -0.2047
-0.4187 -0.6712 -0.2380
-0.4153 -0.6704 -0.2893
-0.6036 -0.6970 -0.3587
-0.3915 -0.7062 -0.2902
-0.4646 -0.7112 -0.3275
-0.1220 -0.3993 -0.2095
-0.3895 -0.6679 -0.3394
-0.3965 -0.6824 -0.3688
-0.2203 -0.6892 -0.3082
-0.4183 -0.6839 -0.3979
-0.3730 -1.1807 -0.4630
-0.2684 -0.6244 -0.4263
-0.2167 -0.6198 -0.4205
-0.3526 -0.6745 -0.1639
-0.2815 -0.6387 -0.1577
-0.2304 -0.7487 -0.1819
-0.4974 -0.7113 -0.2739
-0.4660 -0.7087 -0.2724
-0.2553 -0.7098 -0.2339
-0.1480 -0.6575 -0.1999
-0.0964 -0.7082 -0.2873
-0.1948 -0.6512 -0.3303
-0.4564 -0.6649 -0.4479
-0.4223 -0.6539 -0.4426
-0.3159 -0.6757 -0.4052
-0.0940 -0.7002 -0.3126
-0.2396 -0.6873 -0.3796
-0.6050 -0.6681 0.0312
-0.2080 -0.3126 -0.0661
-0.2490 -0.3778 -0.0660
-0.6143 -0.6568 -0.0747
-0.6066 -0.6517 -0.1269
