0.0018 0.0057 -0.0020
0.0008 -0.0018 -0.0004
0.0022 0.0078 -0.0030
-0.0055 -0.0326 -0.0091
-0.0010 -0.0212 -0.0080
-0.0125 -0.0189 0.0045
0.0023 0.0011 -0.0040
-0.0076 -0.0240 0.0189
-0.0181 -0.0927 -0.0133
0.0010 -0.0375 0.0035
0.0087 -0.0704 -0.0186
0.0049 -0.1093 -0.0089
0.0077 -0.0249 -0.0062
0.0389 -0.0767 0.0718
-0.0001 -0.0487 0.0006
0.0027 -0.0036 -0.0074
0.0035 -0.0078 -0.0131
0.0024 0.0044 -0.0077
-0.0215 -0.2349 -0.0472
0.0112 -0.1128 -0.0168
0.0083 -0.0580 -0.0129
0.0045 -0.0009 -0.0134
0.0048 0.0004 -0.0122
0.0020 0.0001 -0.0057
-0.0002 -0.0574 0.0042
0.1442 -0.3432 0.2077
0.0637 -0.3129 0.2823
0.0577 -0.3219 0.2670
0.1462 -0.3381 0.1919
0.1577 -0.3117 0.3285
0.0242 -0.3336 0.3100
0.1330 -0.3336 0.1882
0.1455 -0.3185 0.2944
0.0425 -0.3404 0.4367
0.1652 -0.3295 0.3217
0.0482 -0.3012 0.2921
0.1251 -0.2874 0.3144
0.0450 -0.3197 0.3294
0.0277 -0.3289 0.2976
0.1399 -0.3745 0.2053
0.0379 -0.3101 0.2382
-0.0899 -0.3775 0.2409
0.0834 -0.3245 0.1811
-0.2931 -0.6204 0.0847
-0.3123 -0.6163 0.0542
0.0937 -0.3340 0.1614
0.1331 -0.3423 0.3141
0.0678 -0.2901 0.3493
0.0288 -0.3065 0.2844
0.0268 -0.3561 0.3413
-0.2117 -0.6102 0.0924
-0.2281 -0.5955 0.0906
-0.3027 -0.5773 -0.0020
-0.3103 -0.5704 0.0030
0.1414 -0.3468 0.1877
0.1016 -0.3337 0.1761
-0.1384 -1.1736 0.1401
-0.3923 -1.0700 0.6176
0.1855 -0.3417 0.4476
-0.1545 -1.1932 0.1842
-0.1060 -1.1910 0.1399
-0.3040 -0.7242 0.6333
-0.3593 -0.9190 0.7386
0.1374 -0.3604 0.3886
0.2554 -0.3173 0.4120
0.1529 -0.3423 0.1917
0.1447 -0.3132 0.3349
0.1346 -0.3157 0.3267
0.2248 -0.3187 0.3730
0.2322 -0.3071 0.4097
0.1394 -0.3574 0.2095
0.1767 -0.2816 0.4098
0.1947 -0.3380 0.4621
-0.2334 -1.1894 -0.0342
-0.2501 -0.5841 0.1919
-0.2790 -0.7343 0.6292
-0.3312 -0.7163 0.6838
0.1846 -0.2603 0.3764
0.1730 -0.3511 0.3226
0.2215 -0.2898 0.4057
0.2084 -0.2361 0.3288
0.2379 -0.3263 0.3693
0.2149 -0.2580 0.3779
0.0994 -0.3278 0.1680
0.1556 -0.4979 0.3224
0.1230 -0.3311 0.3978
0.0677 -0.3487 0.4286
-0.2546 -0.6099 0.1448
0.0552 -0.3304 0.2595
0.1067 -0.3595 0.2032
0.2365 -0.3283 0.3715
-0.3121 -0.9538 0.5751
-0.1492 -1.2057 0.1642
0.0601 -0.3005 0.2625
0.0507 -0.3000 0.3897
-0.2661 -0.6090 0.0498
0.0572 -0.2825 0.2416
-0.2197 -0.3516 0.3967
0.1218 -1.3048 -0.0731
-0.0816 -1.6866 0.8843
-0.2828 -0.9404 0.6496
-0.4598 -0.5427 0.4106
0.2853 -0.3631 0.4442
0.0694 -0.2939 0.3686
-0.4235 -1.3162 -0.3678
-0.2451 -0.5971 -0.0062
-1.6023 -1.3801 0.3185
-1.6511 -1.3326 0.3864
-0.6239 -1.2459 -0.3010
0.0443 -0.3528 0.3529
-0.3909 -1.1806 -0.1781
-0.8909 -1.2739 -0.7040
-1.6039 -1.2323 0.1236
-0.3496 -1.2843 -0.2259
-0.9857 -1.2361 -0.3661
-1.7073 -1.1106 -0.3444
-1.8870 -1.0695 -0.7508
-0.8438 -1.2738 -0.9124
-2.0682 -1.2610 -0.0608
-1.4313 -0.9911 -0.3294
-0.7034 -1.3247 -0.8880
-0.7937 -1.2766 -0.6540
-2.1953 -1.3805 0.0604
-2.3177 -1.2445 0.3646
-0.6698 -1.3754 -0.9674
-1.9242 -1.0264 -0.7004
-0.8935 -1.3335 -0.7287
-0.3837 -1.2186 -0.1955
-1.4596 -1.2649 -0.5655
-1.9556 -1.2196 0.0458
-1.3225 -1.2766 -0.5088
-2.0747 -1.3211 0.0364
-1.7650 -1.1325 -0.3266
-2.2560 -1.3290 0.0503
-1.2927 -1.2583 -0.1350
-1.4339 -1.1543 0.2545
-1.4279 -1.2309 0.2686
-1.1258 -1.2511 -0.7981
-0.4241 -1.3091 -0.3177
-0.7952 -1.2635 -0.7661
-0.6604 -1.2421 -0.3169
-0.4221 -1.2958 -0.3505
-0.7555 -1.2822 -0.3225
-1.9785 -1.1604 -0.7899
-0.6912 -1.2797 -1.0417
-0.7168 -1.2993 -1.0568
-0.8035 -1.2799 -0.7569
-0.4670 -1.2933 -0.2294
-0.7875 -1.3677 -0.4086
-1.4923 -1.2414 -0.3536
-1.2322 -1.2624 -0.8438
-1.7464 -1.2334 -0.3425
-1.2446 -1.2812 -0.4005
-1.3943 -1.2517 -0.4037
-2.3922 -1.1807 -0.3565
-1.1213 -1.2353 -0.4234
-1.0364 -1.2679 -1.0012
-0.6514 -1.2066 -0.7795
-0.4975 -1.2781 -0.1978
-1.6829 -1.3062 -0.5387
-0.6434 -1.2810 -0.8122
-1.3315 -1.3153 -0.6198
-1.2228 -1.2666 -0.6548
-0.6549 -1.2876 -0.8350
-1.1236 -1.3303 -0.9064
-1.3478 -1.2456 0.0144
-1.2962 -1.2964 0.0042
-0.4441 -1.2497 -0.2346
-2.0972 -1.2446 0.1878
-1.9489 -1.3268 -0.2104
-1.0821 -1.2948 -0.3765
-0.7869 -1.3109 -0.6935
-1.8293 -0.8966 -0.7078
-1.0663 -1.3346 -1.0700
-2.1475 -1.2984 0.1090
-0.3164 -1.3216 -0.3923
-2.4287 -1.2593 -0.5967
-2.3721 -1.2347 -0.5584
-2.4384 -1.2498 -0.5395
-2.1945 -1.3944 0.0064
-0.3799 -1.2271 -0.1821
-0.8839 -1.2765 -0.7029
-1.5667 -1.2645 0.1992
-1.6266 -1.3627 0.2139
-0.8661 -1.2518 -0.9562
-1.5332 -1.3037 0.0234
-0.7854 -1.2363 -0.8831
-1.5731 -1.2694 -0.0739
-0.8761 -1.2835 -0.8202
-2.1070 -1.3583 -0.0639
-0.4408 -1.2713 -0.3042
-0.7414 -1.2743 -0.3012
-0.9109 -1.2891 -0.2808
-0.5081 -1.2695 -0.3628
-0.3837 -1.2808 -0.3797
-1.0005 -1.2403 -0.3367
-1.7819 -1.2100 -0.3109
-0.4496 -1.2907 -0.4916
-1.3061 -1.3231 -0.3426
-1.3620 -1.2401 -0.9923
-2.2763 -1.3534 0.3857
-1.9169 -1.3047 0.2744
-0.3962 -1.1963 -0.1682
-0.9734 -1.2655 -0.9817
-0.5251 -1.3439 -0.2340
-0.9283 -1.2622 -0.8171
-1.9682 -1.0636 -0.6684
-2.1850 -1.3493 0.0590
-2.0070 -1.2569 0.0562
-1.5404 -1.3317 0.3882
-1.0133 -1.2868 -1.0477
-0.6319 -1.2401 -0.8691
-0.7757 -1.2078 -0.7794
-0.9837 -1.3271 0.1047
-0.5467 -1.2153 -0.6886
-0.8271 -1.2366 -0.6766
-0.5586 -1.2750 -0.6225
-0.6448 -1.3021 -0.5920
-0.8186 -1.3000 -0.1012
-1.4706 -1.2764 0.0321
-1.1221 -1.2815 -0.2285
-0.5477 -1.3001 -0.2856
-1.9140 -1.3801 0.4727
-2.0239 -1.3398 0.1687
-0.9392 -1.2177 -0.3908
-1.7298 -1.2290 -0.2329
-2.2108 -1.3848 0.6289
-1.5131 -1.1895 0.3181
-0.6354 -1.2924 -0.3077
-0.6770 -1.2234 -0.5093
-1.6369 -1.4248 -0.4526
-1.3887 -1.3050 -0.5580
-2.0679 -1.1388 -0.6498
-1.0172 -1.2766 -0.8332
-0.6866 -1.2382 -0.9093
-2.1093 -1.1579 -0.8955
-2.3714 -1.2593 0.0116
-1.1569 -1.2837 -0.4539
-0.8105 -1.2512 -0.0348
-0.5360 -1.2185 -0.9652
-0.9984 -1.3020 0.1257
-1.2617 -1.2987 -1.0497
-1.1368 -1.2694 -1.0266
-1.0224 -1.2801 -0.9878
-1.1593 -1.3081 0.1390
-0.8140 -1.2704 -0.9039
-2.2809 -1.2762 0.3124
-1.8879 -1.0042 -0.7917
-1.5760 -1.2705 0.0862
-2.0981 -1.1445 -0.8042
-2.0436 -1.2692 0.1418
-0.9084 -1.2842 -0.8100
-2.1718 -1.2556 0.1180
-1.3658 -1.2500 -0.7957
-1.3281 -1.2814 -0.0769
-0.7893 -1.2717 -0.7833
-0.5978 -1.2453 -0.2553
-0.8730 -1.2565 -0.2081
-0.8074 -1.2682 -0.7247
-1.0782 -1.2191 -0.6992
-0.8726 -1.2548 -0.6965
-0.9430 -1.2582 -0.6745
-0.7429 -1.2498 -0.6630
-0.9321 -1.2372 -0.3166
-1.0668 -1.2496 -0.3223
-0.9764 -1.2500 -0.3449
-1.5114 -1.2855 -0.5234
-1.2056 -1.2776 -0.3514
-1.6743 -1.2839 -0.4737
-0.6512 -1.2239 -0.5240
-0.9428 -1.2725 -0.4914
-0.5724 -1.2971 -0.5114
-0.9629 -1.2556 -0.4530
-1.0932 -1.3019 0.1621
-1.4270 -1.2684 0.2299
-1.5378 -1.2580 0.1116
-0.5878 -1.2047 -0.2066
-0.6326 -1.2267 -0.2292
-0.8430 -1.2598 -0.2009
-0.6963 -1.2522 -0.3131
-1.1937 -1.2916 -0.3139
-0.6348 -1.2482 -0.5791
-0.3357 -1.2960 -0.1821
-0.3453 -1.2087 -0.2012
-0.8330 -1.2273 -0.6585
-0.8410 -1.2547 -0.9980
-2.2462 -1.2728 0.3578
-0.5954 -1.1967 -0.1392
-0.5886 -1.2202 -0.8046
-0.7597 -1.2438 -0.1025
-0.7990 -1.1854 -0.1105
-1.2799 -1.2501 -0.1353
-0.8735 -1.2476 -0.5468
-0.5890 -1.2372 -0.5324
-0.7289 -1.2670 -0.5041
-1.1623 -1.1053 -0.4172
-0.5991 -1.2436 -0.4249
-0.6469 -1.2117 -0.4033
-1.0869 -1.2289 -0.7375
-0.7185 -1.2338 -0.3951
-0.6250 -1.2492 -0.4105
-0.6507 -1.1982 -0.3022
-1.5877 -1.2603 -0.0360
-1.0854 -1.2757 -0.1096
-0.8218 -1.2899 -0.8475
-0.6687 -1.2111 -1.0069
-0.5738 -1.2373 -0.8885
-1.7697 -1.2408 -0.3277
-1.0555 -1.2342 -0.8552
-0.7446 -1.2755 -0.5399
-0.9539 -1.2555 -0.1888
-2.1330 -1.3526 -0.0065
-0.9213 -1.2083 -0.4297
-0.8235 -1.2923 -0.4334
-1.7015 -1.0861 -0.3762
-0.8858 -1.1456 -0.3504
-1.3183 -1.3006 -1.1462
-0.6985 -1.2176 -0.3281
-0.8137 -1.2296 -0.8819
-0.7094 -1.2153 -0.2762
-0.7530 -1.2480 -0.6388
-0.6213 -1.2437 -0.5888
-1.1244 -1.2498 -0.4822
-2.1594 -1.3009 0.2141
-1.4970 -1.2976 -0.1764
-0.9900 -1.2979 -0.2915
-1.8180 -1.2026 -0.2713
-1.0017 -1.2303 -1.0034
-0.7449 -0.9957 -0.0939
-0.6563 -1.2099 -0.9386
-1.0134 -1.2001 -0.8197
-0.6355 -1.1939 -0.8090
-0.9529 -1.2116 -0.7747
-0.8094 -1.2748 -0.7428
-0.7091 -1.2487 -0.6509
-0.7965 -1.1549 -0.0790
-0.8530 -1.2479 -0.6707
-1.9701 -1.2262 0.0468
-0.7620 -1.2590 -0.5873
-1.2255 -1.2384 -1.1688
-1.2861 -1.2366 -0.5038
-0.6549 -1.2511 -1.0545
-0.6468 -1.2557 -0.8926
-0.8842 -1.2712 -0.9452
-0.8155 -1.2886 -0.9418
-1.2245 -1.2511 -0.9967
-1.1063 -1.2671 -0.2259
-1.7669 -1.2089 -0.3110
-0.7462 -1.2619 -0.3196
-1.0636 -1.2368 -0.3405
-0.9327 -1.2328 -0.8310
-0.7814 -1.2843 -0.5923
-1.3510 -1.2595 -1.1535
-1.2057 -1.2001 -0.3997
-1.1116 -1.1716 -0.9628
-0.7353 -1.1159 -0.1028
-1.0421 -1.2101 -0.3790
-1.4478 -1.1890 -0.4607
-0.6595 -1.2150 -0.7945
-1.1310 -1.2098 -0.9565
-0.7611 -1.2787 -0.9499
-1.8511 -1.2341 -0.2790
-0.8515 -1.2565 -0.5487
-1.9613 -1.0902 -0.7394
-1.9877 -1.0989 -0.7965
-0.6470 -1.2034 -0.7589
-0.6570 -1.1674 -0.8899
-0.8826 -1.2458 -0.8319
-1.2801 -1.3280 -0.3264
-0.6863 -1.2137 -0.7666
-1.3491 -1.2213 -1.0147
-1.4687 -1.2195 -0.3604
-1.0923 -1.2422 -0.7365
-0.9397 -1.2206 -0.4473
-1.2551 -1.0679 -0.5591
-1.2833 -1.2791 -0.6558
-1.3123 -1.2843 -0.7073
-0.8599 -1.2776 -1.1395
-1.0986 -1.1494 -0.7852
-1.1787 -1.2880 -0.6384
-1.1773 -1.2045 -1.2223
-0.9954 -1.2375 -0.6896
-1.2248 -1.2348 -1.2452
-0.9642 -1.2225 -1.1062
-0.7416 -1.1962 -0.7887
-0.9219 -1.1673 -0.9585
-1.5311 -1.2469 -0.1712
-1.7188 -1.1163 -0.3874
-1.0867 -1.1997 -0.7341
-0.7850 -1.2407 -1.0337
-1.7786 -1.2604 -0.3246
-1.6249 -1.2483 -0.4690
-0.8440 -1.2253 -1.1690
-1.4598 -1.2408 -0.5205
-0.9812 -1.2020 -0.5221
-0.8296 -1.2374 -0.9872
-0.9848 -1.2851 -0.9562
-1.6802 -0.5083 -0.5926
-1.6419 -1.2131 -0.4441
-1.1461 -1.3072 -0.4014
-0.6440 -1.1430 -0.9520
-1.4904 -1.2626 -0.3127
-1.4262 -1.2526 -0.5461
-1.7492 -0.5052 -0.8749
-1.6710 -0.5079 -0.8574
-1.8303 -0.5186 -0.8831
-1.1574 -1.2193 -0.7542
-1.0354 -1.2235 -0.8317
-1.2679 -1.2336 -1.0083
-1.2117 -1.2311 -1.1663
-1.4935 -1.3240 -1.4212
-0.9878 -1.2459 -1.1152
-0.8431 -1.2204 -1.1273
-1.1602 -1.2799 -1.3536
-0.8281 -1.2410 -1.1770
-0.7466 -1.1094 -1.0784
-0.8280 -1.2267 -1.1913
-1.1318 -1.1294 -0.7140
-1.0848 -1.3409 -1.2815
-0.9350 -1.2406 -1.1687
-1.3562 -1.2176 -0.4475
-1.2925 -1.2619 -0.4855
-1.2769 -1.2483 -0.5921
-1.3534 -1.1777 -0.6679
-1.6953 -0.5457 -1.0199
-1.0275 -1.1677 -1.1925
-1.2772 -1.1824 -1.4339
-0.8039 -1.1865 -1.1774
-2.2778 -0.6554 -1.1141
-2.0122 -0.5766 -1.3090
-1.3360 -1.2207 -0.4332
-1.5657 -0.5104 -0.7741
-1.4413 -1.2425 -0.5495
-1.9132 -0.5035 -0.8391
-1.2614 -1.2542 -0.5507
-0.9440 -1.2212 -0.8356
-1.0467 -1.2250 -1.0232
-1.5169 -0.5056 -1.3104
-1.1074 -1.1636 -0.4632
-1.2744 -1.1988 -1.4849
-1.3409 -1.2183 -1.2420
-1.5874 -1.2136 -0.6788
-1.3100 -0.4728 -1.1948
-1.3944 -1.2553 -0.4012
-1.4590 -1.2200 -0.5422
-1.2282 -1.2776 -0.9917
-0.9871 -1.2751 -1.0254
-1.2722 -1.1919 -1.4754
-1.2697 -1.2284 -1.5181
-1.7764 -0.5120 -1.1740
-0.9353 -1.2737 -1.1598
-1.6849 -0.4771 -0.8275
-1.8204 -0.5331 -0.8046
-1.6248 -0.5200 -1.0844
-1.9898 -0.4030 -0.7162
-1.8971 -0.5227 -0.8974
-1.7267 -0.5519 -0.8438
-1.7689 -0.5474 -0.8398
-1.7591 -0.4805 -0.8262
-1.8103 -0.4637 -0.8785
-1.3316 -0.4894 -1.2051
-1.3770 -0.4919 -1.1709
-1.3452 -0.4969 -1.2005
-1.5827 -0.5049 -0.7263
-1.6321 -0.4812 -0.8407
-1.7551 -0.4165 -0.7927
-1.6442 -0.5358 -1.0290
-1.2845 -1.3463 -0.9565
-1.7478 -0.6136 -1.0796
-1.6904 -0.5372 -1.0249
-1.3265 -1.2827 -1.0653
-2.1220 -0.6023 -0.9195
-1.8837 -0.5610 -1.0037
-1.4861 -1.2416 -1.0056
-1.0110 -1.2097 -1.2008
-1.7137 -0.5710 -1.0227
-2.9329 -0.7599 -2.0603
-3.0522 -1.0986 -2.8165
-1.8380 -0.5492 -1.1237
-1.0078 -1.2302 -1.4422
-2.7168 -0.7732 -2.9462
-1.8194 -0.6065 -1.3948
-0.9819 -1.2525 -1.2891
-0.9522 -1.1413 -1.5687
-0.8187 -1.1447 -1.4392
-0.8083 -1.1927 -1.5168
-0.8243 -1.2936 -1.6571
-1.6230 -0.6620 -2.3477
-1.3723 -0.6460 -2.0320
-0.7654 -1.5365 -1.5846
-1.7087 -0.3548 -1.7910
-2.7967 -0.8084 -3.2585
-1.4765 -0.9701 -2.3271
-3.9791 -1.3121 -2.0335
-2.0043 -0.6265 -1.4772
-1.0996 -0.7398 -1.8632
-1.7198 -0.4883 -0.9016
-0.9850 -1.3528 -1.4882
-1.4415 -1.5837 -0.7779
-3.1525 -0.6654 -2.2474
-2.8719 -0.7512 -2.6217
-2.1080 -0.2050 -1.7685
-1.3057 -0.5838 -1.9419
-1.4403 -0.4327 -2.0246
-1.3056 -1.1973 -1.5185
-2.8236 -0.8606 -3.1237
-3.0823 -0.8402 -2.1585
-2.8231 -0.8106 -2.3268
-1.8447 -0.5290 -1.1208
-1.7823 -0.5851 -1.0914
-1.6711 -0.5311 -1.0632
-1.6645 -0.5596 -1.0378
-1.7144 -0.5782 -1.0388
-1.4113 -0.5001 -1.1638
-3.2324 -0.8890 -3.1707
-2.7984 -0.8197 -2.9445
-2.9309 -0.6968 -2.9388
-2.7720 -0.6945 -3.3536
-2.9104 -0.4841 -2.6090
-1.7051 -1.4908 -0.6850
-1.8044 -0.5283 -1.0904
-1.8463 -0.5300 -1.0045
-3.7753 -0.9936 -1.9988
-3.8073 -0.6458 -2.2176
-3.0235 -0.2890 -2.1122
-2.7323 -0.6300 -2.2733
-2.8638 -0.3603 -2.5235
-2.9948 -0.3706 -2.6767
-3.5384 -0.6047 -1.6067
-1.8279 -0.5397 -0.8115
-1.8590 -0.4912 -0.8116
-2.0109 -0.5075 -0.8930
-2.1061 -0.5431 -0.9513
-1.9122 -0.4661 -0.9421
-1.9051 -0.5312 -1.4307
-1.9444 -0.5597 -0.8835
-1.8943 -0.6073 -0.8481
-2.1099 -0.5440 -0.9965
-3.5818 -0.8406 -1.5311
-3.3906 -0.7971 -2.1892
-3.1244 -0.2556 -1.3157
-2.6014 -0.1632 -2.2495
-2.7335 -0.2178 -2.4222
-1.6303 -0.5888 -1.0199
-2.9257 -0.6399 -2.6404
-3.0276 -0.6673 -2.1266
-1.8342 -0.5382 -0.7960
-1.8555 -0.5097 -0.8296
-1.7927 -0.5040 -1.0723
-1.6663 -0.4865 -0.9934
-1.6083 -0.4976 -0.9789
-1.6843 -0.5170 -0.9950
-1.8918 -0.4859 -0.8059
-1.9162 -0.4846 -0.8315
-2.0885 -0.5056 -0.9486
-1.5882 -0.5011 -0.9643
-1.6943 -0.4907 -0.5059
-1.9415 -0.5260 -0.8575
-1.8203 -0.5128 -1.0896
-1.6445 -0.5123 -1.0029
-1.8781 -0.5451 -0.9877
-2.1312 -0.4702 -0.7052
-1.8991 -0.5638 -0.7941
-1.7484 -0.5100 -1.3221
-1.6399 -0.4882 -1.2642
-1.7405 -0.4807 -0.7888
-2.1841 -0.5650 -0.9629
-2.1726 -0.5484 -0.9552
-2.0759 -0.5018 -0.6267
-1.5861 -0.4898 -0.9768
-1.8253 -0.5186 -0.8168
-1.7785 -0.4739 -0.7827
-1.6963 -0.5028 -0.9076
-1.6986 -0.4956 -0.5024
-1.6892 -0.5230 -0.9979
-3.1446 -0.6064 -0.5563
-1.7553 -1.0454 -0.2678
-1.7981 -0.4617 -0.9517
-1.7188 -1.0714 -0.2641
-1.5372 -1.0398 -0.4454
-1.6203 -0.5489 -1.2814

