0.1996 -0.5815 0.3964
-0.1308 -0.5754 0.1337
0.1601 -0.5861 0.3458
0.2125 -0.5680 0.3968
-0.0924 -0.5682 0.1565
-0.0989 -0.5370 0.1654
0.1112 -0.5998 0.4362
0.1526 -0.5512 -0.0427
0.4909 -0.5751 0.2166
0.2279 -0.5786 0.1260
0.0231 -0.5927 0.0688
0.1921 -0.5764 0.4338
-0.1207 -0.5985 0.3126
-0.0327 -0.5468 0.1577
0.0939 -0.5897 0.0627
0.1177 -0.5510 0.3902
0.2188 -0.5333 -0.0562
0.2372 -0.5491 0.0562
0.2248 -0.5804 0.0554
0.2012 -0.5742 0.1376
-0.1474 -0.5787 0.2029
0.3586 -0.5671 0.0818
-0.0572 -0.5453 0.2990
-0.0601 -0.5866 0.3032
0.0171 -0.5550 0.0778
0.1594 -0.5693 0.2184
0.0708 -0.5800 0.2030
-0.0401 -0.5523 0.1115
0.0043 -0.5765 0.1891
0.0507 -0.5639 0.2608
-0.0465 -0.5976 0.2970
0.4108 -0.5858 0.2755
0.1039 -0.5549 -0.0475
0.1135 -0.5942 -0.0394
0.2300 -0.5585 0.1403
0.1729 -0.6431 -0.0795
0.1210 -0.5816 0.1424
0.0960 -0.5712 0.1457
-0.0190 -0.5901 0.1957
0.3579 -0.5694 0.0615
-0.1696 -0.5537 0.1357
-0.1261 -0.5920 0.1037
-0.1384 -0.5770 0.1706
-0.0681 -0.5490 0.0663
0.1906 -0.5977 0.0040
0.3335 -0.5486 0.1721
0.0206 -0.5603 0.2116
0.0734 -0.5495 0.2563
0.0485 -0.5787 0.2186
-0.0369 -0.5799 0.0993
-0.0290 -0.5681 0.0978
-0.1242 -0.5965 0.2237
0.1228 -0.5888 0.1487
-0.1291 -0.5529 0.1751
0.2817 -0.5781 0.3816
0.0403 -0.5836 0.1041
0.2106 -0.5876 0.0896
0.0797 -0.5576 0.1975
0.1070 -0.5771 0.0625
0.1364 -0.6028 0.0378
0.0800 -0.6016 0.2375
0.1329 -0.5594 0.5528
0.0841 -0.5147 0.4589
0.1005 -0.5482 -0.0068
-0.1476 -0.5685 0.1168
-0.0079 -0.5916 0.1371
-0.0903 -0.5665 0.1967
-0.0155 -0.5931 0.1203
0.0124 -0.5568 0.1110
-0.0279 -0.5890 0.2027
0.3490 -0.5684 0.0961
0.2475 -0.5502 0.1395
0.0975 -0.5470 0.0211
0.0012 -0.5652 0.5493
0.1142 -0.5880 0.2123
0.2304 -0.5808 0.3746
0.0987 -0.5747 0.4434
0.2796 -0.5732 0.0483
0.0517 -0.5508 0.2854
0.2039 -0.5746 0.0320
-0.0524 -0.5835 0.1605
-0.0552 -0.5517 0.1382
0.2621 -0.5736 0.0821
0.1995 -0.5910 -0.0264
0.1710 -0.5642 -0.0572
0.2246 -0.5703 -0.0873
0.2204 -0.5837 -0.0575
-0.1436 -0.5944 0.2676
0.4617 -0.5510 0.2439
0.0904 -0.5519 -0.0557
0.3562 -0.5787 0.2841
-0.1093 -0.5540 0.2819
0.3454 -0.5513 0.3139
0.3152 -0.5663 0.2905
0.0985 -0.5470 0.0906
0.0946 -0.5514 0.1296
0.1379 -0.5429 0.3155
0.1864 -0.5502 0.1203
0.1469 -0.5857 -0.0486
0.0721 -0.5675 0.1053
-0.0071 -0.5955 0.2953
0.1065 -0.5851 0.1800
0.1710 -0.5942 -0.0663
-0.0810 -0.5909 0.1971
0.0773 -0.5542 -0.0539
0.1547 -0.5871 0.2511
0.1662 -0.5984 0.2630
0.2276 -0.5720 0.3264
0.0080 -0.5765 0.0116
0.1751 -0.5675 0.2336
0.1567 -0.5967 0.1421
0.1399 -0.5571 -0.0151
-0.0116 -0.5775 0.2200
-0.0637 -0.5399 0.1078
0.0355 -0.5466 0.0748
0.1097 -0.5316 0.3102
-0.0975 -0.6109 0.3173
0.1612 -0.5689 -0.0012
0.0789 -0.5638 0.1206
0.0014 -0.5688 0.3699
-0.0148 -0.5849 0.3278
-0.1420 -0.5959 0.1112
-0.0191 -0.5466 0.0295
-0.0424 -0.5720 0.0472
0.1813 -0.5491 0.3961
0.2564 -0.5872 0.1143
-0.0741 -0.5940 0.1265
0.1076 -0.5797 0.4576
-0.0194 -0.5507 0.0971
0.2382 -0.5478 0.0405
0.0911 -0.5788 0.0568
-0.0282 -0.5845 0.2599
0.1420 -0.5747 -0.0554
0.2927 -0.5591 0.1012
-0.0038 -0.5024 0.4994
0.3042 -0.5801 0.2123
0.1851 -0.5662 -0.0271
0.3201 -0.5655 0.1908
0.3223 -0.5845 0.1857
0.2242 -0.5239 -0.0487
0.2697 -0.5412 0.2372
0.1707 -0.5587 0.2558
0.0656 -0.5542 0.3225
-0.0363 -0.5690 0.1589
0.2615 -0.5322 0.1125
0.1456 -0.5510 0.4644
-0.0535 -0.5462 0.3840
0.1984 -0.5528 -0.0187
0.2075 -0.5546 -0.0406
0.2278 -0.5351 -0.0876
0.0623 -0.5486 0.0464
0.2783 -0.5266 -0.0196
0.3576 -0.5537 0.0693
-0.0119 -0.5424 0.0249
0.4083 -0.5566 0.2127
0.4139 -0.5875 0.2373
-0.0725 -0.5779 0.3876
0.1291 -0.5487 -0.0634
0.1327 -0.5494 -0.0249
0.1978 -0.5495 0.0716
-0.1100 -0.5950 0.2068
0.0592 -0.5542 0.0137
0.1293 -0.5487 0.1491
-0.0584 -0.5382 0.1249
0.2290 -0.6049 0.3009
-0.0518 -0.5871 0.1064
0.0804 -0.5865 0.1690
0.0953 -0.5385 0.3029
0.0037 -0.6043 0.0663
-0.0078 -0.5455 0.0553
0.1948 -0.5395 0.3836
0.0472 -0.5627 0.1963
0.1414 -0.5824 0.3734
-0.0800 -0.5429 0.2675
0.1896 -0.6071 -0.1219
0.2854 -0.5508 -0.0104
-0.0115 -0.5380 0.3585
-0.0839 -0.5405 0.2817
-0.1112 -0.5568 0.0921
0.0849 -0.5743 -0.0530
-0.1961 -0.5774 0.1774
0.2756 -0.5830 0.0409
0.3291 -0.5434 0.1319
-0.1234 -0.5503 0.1911
0.1829 -0.5848 0.0454
-0.1559 -0.5600 0.1247
0.0692 -0.5450 -0.0371
0.0351 -0.5852 -0.0132
0.0059 -0.5680 0.2484
0.0310 -0.5559 0.0935
0.1635 -0.5602 0.3480
0.0606 -0.5848 0.2235
0.0732 -0.5685 0.2439
0.0760 -0.5985 0.2559
-0.1376 -0.5706 0.1680
0.3086 -0.5596 0.0191
-0.1913 -0.5802 0.1993
0.3057 -0.5846 0.1011
-0.1528 -0.5736 0.1433
-0.1041 -0.5754 0.1308
0.2805 -0.5814 0.1144
-0.0543 -0.5970 0.1834
0.0466 -0.5744 0.2777
-0.0272 -0.5762 0.1165
0.2376 -0.6074 -0.0784
0.1913 -0.5568 0.2203
-0.1477 -0.5480 0.2509
0.1472 -0.5885 0.2261
0.0844 -0.5845 0.0227
0.2177 -0.5843 0.4214
0.3163 -0.5984 0.1324
-0.0680 -0.5798 0.2804
0.3843 -0.5817 0.2727
0.3376 -0.5654 0.0662
0.2714 -0.6240 -0.0330
0.2415 -0.5793 0.0281
0.2438 -0.5777 0.0608
0.1708 -0.5724 0.2598
-0.0467 -0.5767 0.0970
0.0952 -0.2055 -0.0039
0.1920 -0.5708 0.1694
0.0743 -0.5795 0.1058
0.2677 -0.5881 0.1143
0.0635 -0.5905 -0.0367
-0.1765 -0.5762 0.1391
0.2746 -0.5604 0.0769
-0.1081 -0.5775 0.2494
0.2073 -0.5834 0.0285
0.1877 -0.5533 0.1041
0.2007 -0.5699 0.1338
0.1221 -0.5704 0.3412
-0.0204 -0.5804 0.1006
0.0261 -0.5634 0.0854
0.0590 -0.5806 0.0633
0.0996 -0.5964 0.1484
0.0442 -0.5889 0.3565
0.3655 -0.5766 0.3020
0.0418 -0.6010 0.1026
0.2014 -0.5776 0.0827
0.2887 -0.5744 0.2616
0.1546 -0.5620 -0.0431
0.4061 -0.5722 0.3221
0.0682 -0.5814 -0.0301
0.0516 -0.5469 0.1017
0.0810 -0.5607 0.3109
-0.0260 -0.5901 0.3483
0.0471 -0.0498 0.0813
-0.0948 -0.5886 0.1595
0.1358 -0.3885 0.0159
0.1249 -0.5839 0.4090
0.0021 -0.5895 0.3795
0.3091 -0.5847 0.1694
0.2179 -0.5821 0.0937
0.0419 -0.5853 0.0626
0.1647 -0.5855 0.2196
0.1403 -0.6012 -0.0747
0.1100 -0.5915 0.0598
0.1592 -0.5594 0.1304
0.2839 -0.5848 0.1936
0.1881 -0.5881 0.0979
0.2908 -0.5717 0.1824
0.1972 -0.5871 0.1256
0.1849 -0.5764 0.2028
0.0758 -0.5612 0.0280
0.4738 -0.5651 0.2474
0.1928 -0.5924 -0.0435
0.2601 -0.5545 0.1041
0.1140 -0.6146 -0.0582
0.3286 -0.5925 0.1846
0.0944 -0.5894 -0.0627
-0.0214 -0.5868 0.2090
0.2457 -0.5930 0.1618
0.0014 -0.5845 0.0120
0.0761 -0.5709 0.0716
0.1045 -0.5962 0.3290
0.0580 -0.5665 0.2536
0.1032 -0.6010 0.1364
0.0622 -0.5722 0.2336
0.2288 -0.5906 0.0195
-0.0359 -0.5976 0.1679
0.0851 -0.5005 0.4503
0.1615 -0.5915 -0.1036
0.2534 -0.5859 0.0574
0.0801 -0.5736 -0.0191
0.3254 -0.5952 0.0773
0.2258 -0.5799 0.1113
0.1699 -0.5427 0.2239
0.0301 -0.1443 0.0726
0.2267 -0.6009 0.0801
0.1301 -0.5891 -0.0182
0.0714 -0.5956 0.0526
-0.1003 -0.5861 0.3665
-0.0247 -0.5872 0.3602
-0.1936 -0.5869 0.2264
-0.0523 -0.6076 0.3860
-0.1543 -0.5831 0.2204
-0.1390 -0.5945 0.1839
-0.0137 -0.5894 0.3872
0.1093 -0.5942 0.1783
-0.0061 -0.5996 0.1833
-0.0377 -0.5923 0.0984
0.0737 -0.6057 0.2061
0.0837 -0.5784 0.2036
0.1174 -0.5971 0.0626
0.2113 -0.5871 0.1828
0.0235 -0.6095 0.0286
0.1478 -0.5832 0.3360
-0.0063 -0.5878 0.0781
0.3683 -0.5847 0.1015
0.3877 -0.5469 0.2228
0.1918 -0.5820 0.4170
0.0363 -0.0415 0.0582
-0.1119 -0.5902 0.3562
-0.1747 -0.5845 0.2601
-0.1361 -0.5776 0.2278
-0.0714 -0.5867 0.2548
-0.1140 -0.6054 0.1812
-0.0446 -0.5784 0.2482
-0.0740 -0.6299 0.1502
0.1077 -0.6006 0.0464
0.1199 -0.5674 -0.0176
0.2407 -0.5833 0.1445
0.1912 -0.5723 0.0564
0.0251 -0.0746 0.0950
0.2300 -0.5834 0.0637
0.0134 -0.5894 0.5405
-0.1012 -0.6011 0.1898
0.1307 -0.5707 0.2660
0.0630 -0.5887 0.2703
-0.0446 -0.5959 0.0456
0.0322 -0.5832 0.0961
0.0184 -0.5614 0.2342
0.2293 -0.5776 0.2166
0.3479 -0.5295 0.1232
-0.1187 -0.5971 0.3524
-0.1755 -0.5947 0.2443
0.4296 -0.5850 0.2218
0.0182 -0.6009 0.3842
-0.0082 -0.2569 0.0613
0.0233 -0.5726 0.3590
0.0941 -0.2019 0.0123
0.0261 -0.2350 0.0403
0.0323 -0.0656 0.0874
0.0271 -0.0520 0.0832
0.0585 -0.0698 0.0680
0.0131 -0.0339 0.0643
0.0221 -0.0101 0.0665
0.0278 -0.0684 0.0507

