-0.5109 -0.8666 -0.1444
-0.1692 -0.2219 0.0904
0.3280 -1.6020 0.4630
-0.1024 -0.5227 -0.0820
-0.4698 -2.4822 -0.4081
-0.8502 -2.1431 0.3699
-0.6771 -2.1298 0.3596
0.0635 -2.1094 0.0602
-1.1806 -2.4118 -0.5124
-0.6495 -2.3174 -0.3485
-0.5037 -2.2933 0.4391
-0.3169 -1.8578 0.1381
-0.9992 -2.2052 0.1644
-0.6561 -2.1677 -0.1596
-1.0102 -0.9503 0.8838
-0.2028 -1.9404 0.9204
-0.3100 -2.0425 -0.3241
-1.1398 -1.0379 0.3490
-1.1098 -0.9314 0.9174
-0.7215 -2.3741 0.1909
-0.5177 -2.4224 -0.4754
-0.0937 -0.0827 0.0430
-1.0429 -1.0103 0.9989
-0.8204 -2.1084 -0.0389
-0.7261 -2.1833 0.4637
-0.6136 -2.3939 0.0369
-0.2587 -1.7557 0.7138
-0.5346 -2.0633 0.2627
-0.2518 -2.3870 -0.5810
-0.1634 -1.2247 0.7487
0.1987 -2.1177 0.3789
-0.6053 -2.2827 0.2538
-0.1249 -2.2203 -0.3715
-0.4690 -2.6000 0.1051
-1.4916 -1.3604 1.4140
-0.7847 -2.4178 0.3791
0.1319 -2.0686 0.0867
-0.5965 -2.3946 -0.1650
0.3062 -1.8764 0.5058
-0.7500 -1.2299 1.1154
-1.0236 -0.9342 0.8628
-1.1416 -2.1430 0.3662
-1.1156 -2.1994 0.4476
0.1467 -2.2349 0.1625
-0.0929 -1.9382 0.6620
0.3214 -2.0613 0.5419
-0.4418 -2.0495 0.7562
0.2318 -1.9031 0.4254
-0.3401 -2.4552 -0.4597
-0.1786 -2.1049 0.2957
-0.3112 -2.1627 0.2757
-1.1884 -1.7662 -0.0057
-0.4622 -2.2466 0.0395
-0.9108 -2.2628 -0.0930
-0.8654 -2.3367 0.0672
-0.0109 -1.7834 -0.1533
-0.2583 -2.2290 -0.0512
-0.0341 -2.1355 -0.0279
0.0503 -1.9698 0.6942
-0.7269 -1.0995 -0.1011
-0.4594 -2.2174 0.6352
-1.1783 -1.0791 1.1550
-1.1539 -1.0459 0.3652
-0.2219 -1.3153 -0.1882
-0.9513 -1.0509 0.9505
-1.2131 -0.8843 1.1626
-0.5585 -1.1730 0.2672
-1.1332 -0.9283 1.0962
-1.1685 -1.0392 1.0021
-0.1302 -1.9184 0.6731
-0.0145 -1.8589 0.7380
0.0771 -2.1292 0.1325
-0.2137 -1.9666 0.9691
-1.4279 -2.1453 0.0779
-1.1618 -2.1433 -0.0020
-0.7861 -1.7092 0.3132
0.0952 -2.1277 0.0767
0.3397 -1.8310 0.5749
0.2215 -2.1328 0.8231
-0.9763 -2.0297 0.1121
0.1833 -1.9506 0.5927
-0.4995 -2.1827 -0.4594
-0.2074 -2.0555 0.6194
-0.2220 -1.1281 0.6863
-1.2383 -1.5632 0.1493
-0.7439 -0.9852 1.0994
-0.1777 -1.6307 1.0418
-0.2041 -0.7072 0.3512
-1.2409 -0.9380 0.9281
0.1091 -1.9573 0.2494
0.0638 -2.0821 0.2753
-1.0552 -1.0048 0.7644
0.2882 -1.7645 0.5091
0.0624 -2.0729 0.2772
-1.0897 -0.9816 1.1193
-1.0370 -0.8730 0.9904
-0.2570 -0.2635 -0.0417
-0.3739 -2.1203 0.5193
-0.1408 -2.1768 0.1747
-0.1630 -1.9664 1.5092
0.2559 -2.1276 0.9749
0.2059 -2.0190 0.9351
-0.8685 -0.9351 1.2372
-0.1363 -2.0308 1.0043
0.1838 -1.9748 0.6875
-0.3988 -2.0906 -0.2117
0.2787 -2.0000 0.6573
-0.1246 -2.1233 0.3570
-0.7685 -0.9185 1.1562
-0.9248 -0.9987 1.0410
-0.4003 -1.8125 0.0725
-0.9308 -1.0431 1.2335
-0.1863 -1.2585 0.8209
-1.2192 -0.5375 2.9256
-0.3728 -0.5598 0.6268
-2.2608 -5.4717 6.1816
-1.4381 -10.5468 7.0439
-2.5583 -6.1887 6.7427
-2.7539 -5.9305 6.0039
-3.4792 -5.5604 7.0822
-4.7332 -6.7610 8.9343
-6.1689 -2.5708 6.7065
-5.1191 -8.1026 6.0360
-5.0478 -1.3774 2.6116
-4.7255 -1.5352 7.2827
-6.1731 -0.9117 6.0892
-5.0638 -0.5177 4.9473
-4.6030 -1.3797 2.3688
-0.7445 -4.0444 2.3667
-5.8300 -2.5880 10.1668
-8.2090 -8.0575 8.5343
-8.3311 -6.0121 5.9146
-15.7201 -17.6492 7.5445
-5.5646 -0.6139 3.1479
-6.6454 -1.9993 2.9614
-5.2808 -2.9732 9.8479
-5.9929 -3.0887 9.9164
-10.8094 -2.5640 4.4451
-5.6548 -0.8380 10.1339
-5.6149 -2.6825 10.3039
-4.7265 -0.3482 2.1523
-6.2321 -1.9838 4.2095
-12.3609 -3.8603 7.5260
-9.3423 -1.7281 5.4639
-2.7489 -8.1266 3.3574
-0.4526 -0.3570 1.8384
-1.2058 -1.4397 0.7129
-17.6876 -12.0317 8.4370
-26.5164 -29.3954 11.1575
-9.0368 -8.0344 5.3280
-7.4463 -3.7380 10.9434
-8.7116 -3.0012 7.4768
-9.4097 -5.7498 7.1396
-18.1551 -10.1748 4.6700
-0.8242 -2.4853 0.1906
-12.5417 -7.0122 3.6745
-8.0645 -12.1790 9.3477
-10.2220 -1.9889 5.5446
-7.6589 -11.2772 13.5945
0.4194 -2.6742 1.1527
-11.0971 -2.5713 7.0698
-8.6850 -44.0935 17.9906
-3.1767 -17.2096 6.6843
-3.7218 -3.0497 3.3124
-0.1073 -4.0437 2.3003
-0.8143 -3.2833 0.1700
-1.1383 -3.0309 1.6644
-15.9268 -6.4538 9.9888
-20.0602 -16.5261 10.7773
-13.1003 -4.1154 3.6107
-11.3867 -3.6185 3.0116
-12.2433 -5.6105 12.0800
-16.6766 -7.4811 13.6791
-9.3156 -2.2669 5.4085
-11.3224 -2.9457 5.2415
-16.3345 -21.2963 25.8853
-11.2966 -2.9628 3.0396
-14.1801 -16.2554 13.2872
-8.7737 -1.9626 1.8272
0.4616 -1.7989 1.2245
-28.3440 -25.6683 1.8101
-16.2715 -7.4031 24.8368
-9.0094 -1.9247 2.0254
-11.3949 -3.3995 7.1293
-12.7869 -18.9770 12.8877
-10.9562 -2.4274 6.1325
-13.8150 -4.6823 4.5833
-8.6974 -1.8939 2.4624
-16.0296 -14.7037 14.9400
-7.5781 -1.6748 1.9106
-12.4021 -3.8696 2.9331
-9.0112 -2.0753 4.6834
-7.8442 -1.7681 2.3519
-6.1489 -34.3749 23.7882
-7.8249 -41.1480 27.9428
-8.1639 -21.9094 8.6683
-8.7893 -20.0803 2.6676
-6.8600 -4.3106 3.2785
-3.7303 -22.2597 8.7373
-4.8055 -6.2579 1.4855
-10.3668 -2.5094 8.1835
-19.4692 -12.5927 11.0909
-3.8132 -21.1789 14.9698
-11.6778 -17.6054 20.0130
-16.4497 -27.3285 1.8820
-12.9706 -25.2783 25.1850
-3.1642 -1.4938 1.5546
-18.6166 -18.0001 17.4771
-19.4473 -25.0910 18.4372
-19.9869 -12.9331 11.0361
-12.9783 -6.2481 20.2825
-0.5198 -0.7539 0.6936
-14.7668 -7.0066 20.5124
-19.5737 -12.9714 9.6179
-21.5279 -20.8139 3.6460
-27.4520 -34.5105 -2.1518
-12.0143 -3.5168 5.4511
-15.8407 -8.2835 5.6806
-18.5884 -34.1562 31.8871
-13.8258 -8.1505 21.5081
-7.9177 -1.7006 2.5063
-10.9142 -2.7966 2.4284
1.0750 -4.3266 1.5772
-1.3334 -5.9292 -0.2267
-1.9482 -6.9681 2.4212
-19.4109 -26.7391 31.5890
-3.2831 -1.0823 3.1611
-8.3921 -40.1567 28.7986
-27.4292 -36.4244 -2.9470
-16.5862 -7.7258 16.4171
-8.5208 -1.9091 1.6673
0.0590 -3.4037 2.7310
-5.9148 -4.4694 2.9543
1.9745 -0.8664 0.4591
-4.0156 -1.1087 1.5799
-7.8388 -37.1460 23.9084
-22.4166 -19.9835 15.8712
-20.8413 -15.3541 13.6927
-26.6883 -28.0701 8.4796
-24.1588 -20.7519 12.8819
-10.1008 -2.3500 4.3443
-11.6232 -7.2441 5.8093
-0.0642 0.0517 -0.0035
-21.9525 -16.1519 11.3072
-14.1475 -4.7429 5.7085
-11.5301 -3.4829 2.8672
-9.2302 -23.7195 -2.2956
-14.2221 -47.0856 34.7094
-20.1931 -19.0105 26.0756
-16.7326 -41.9522 17.0016
-27.8605 -37.9402 -2.1817
-21.4399 -16.8723 26.7420
-20.2491 -17.7684 21.7590
-18.7458 -11.3254 11.9481
-11.5820 -2.8685 7.0019
-20.7342 -14.5268 10.4551
-13.0424 -4.3643 3.5225
-15.9721 -5.9805 17.1212
-23.2699 -20.9485 12.8234
-13.2289 -4.2039 5.5280
-14.1386 -4.3789 9.1639
-21.9738 -23.4608 20.1494
-20.5676 -16.4263 14.3894
-21.6286 -17.6822 11.8842
-22.6397 -16.8899 11.0398
-18.7194 -9.6826 5.6465
-26.0426 -25.6292 4.5056
-13.4179 -4.4821 2.3958
-9.3327 -7.3877 8.3919
-14.6753 -15.5208 4.9673
1.7168 -6.8376 2.7946
-9.7789 -42.9180 22.5885
-24.0675 -24.6946 16.5032
-21.3358 -13.6374 8.3132
-13.3157 -3.9593 6.2225
-14.5922 -4.2949 6.3648
-20.7940 -11.8756 5.2690
-0.1156 0.0084 0.0561
-0.1898 -0.0217 0.0261
-0.0692 0.0216 0.0058
-0.0781 0.0207 -0.0097
-0.1191 0.0041 -0.0104
-0.1028 -0.0234 -0.0315
-0.1183 -0.0175 -0.0598
-0.5501 -0.6691 0.7260
-0.0689 0.0631 -0.0300
-0.2506 -0.1329 -0.0071
-0.0780 0.0663 -0.0288
-0.0765 0.0626 -0.0083
-0.1015 -0.0452 -0.0137
-0.1687 -0.2566 0.0978
-0.0744 0.0332 -0.0162
-0.0716 0.0339 -0.0155
-0.0824 0.0508 -0.0251
-0.0739 0.0418 -0.0341
-0.1502 -0.0910 -0.0401
-0.4825 -0.1562 0.1023
-0.1625 -0.3868 0.1273
-0.2266 -0.0071 0.1514
-0.1508 -0.0246 0.0254
-0.0967 0.0339 -0.0272
-0.0710 0.0307 -0.0257
-0.0904 0.0187 -0.0352
-0.0791 0.0478 -0.0588
-0.0940 0.0169 -0.0610
-0.0535 0.0651 -0.0314
-0.0986 -0.0075 0.0342
-0.2730 0.0117 0.0621
-0.2019 -0.2797 0.0735
-0.4620 -0.2821 0.1157
-0.2917 -0.2463 0.2480
-0.1960 -0.0151 0.0569
-0.5486 -0.7535 0.6241
-0.5219 -0.7213 0.6737
-0.7853 -0.7516 0.4560
-0.8400 -0.7170 0.6428
-1.0214 -0.7680 0.2873
-0.3674 -1.3195 0.8664
-0.9199 -0.7545 0.5293
-0.5722 -0.7774 0.6108
-0.6918 -0.7223 0.4707
-0.6983 -0.7428 0.2899
-0.3949 -0.3252 0.3894
-1.1979 -0.6991 0.3532
-1.2746 -0.6754 0.3623
-1.1327 -0.7155 0.2975
-1.1776 -0.7021 0.3021
-1.1912 -0.6008 0.1092
-0.7558 -0.7346 0.1258
-0.3913 -1.3124 0.8266
-1.3055 -0.6491 0.0811
-1.0266 -0.7008 0.4539
-0.9585 -0.7143 0.4056
-0.7096 -0.7465 0.4361
-0.9878 -0.6677 0.0451
-0.9586 -0.4728 0.4405
-0.1447 0.1065 0.0005
-0.4006 -0.0651 0.0535
-0.5669 -0.2345 0.2925

