-0.0242 -0.0160 0.0146
-0.0159 -0.0131 0.0138
-0.0074 -0.0015 0.0016
0.0001 -0.0515 0.0069
-0.0199 -0.0352 0.0078
0.0006 -0.0119 0.0104
-0.0456 -0.0312 0.0119
0.0095 -0.0216 0.0067
0.0035 -0.0187 0.0029
-0.0030 -0.0083 0.0208
0.0107 0.0061 -0.0036
0.0137 0.0141 0.0001
-0.0011 -0.0246 0.0253
0.0044 0.0093 0.0090
0.0136 -0.0006 0.0221
0.1078 -1.1474 0.4107
0.0768 -1.0580 0.4333
-0.0797 -0.1652 0.1360
-0.1839 -0.1659 0.3595
-0.0520 -1.0176 0.4869
0.0038 -1.2921 0.5685
-0.8618 -0.7340 0.2957
-0.7657 -0.7549 0.1565
-0.3511 -0.7652 0.6072
-0.0608 -1.0959 0.4862
-0.7567 -1.3247 -0.1212
-0.0379 -1.0220 0.4456
-0.6925 -0.7068 0.6303
-1.0013 -0.7580 0.3944
-0.0275 -1.1509 0.5843
-0.2849 -0.7699 0.7297
-0.1693 -0.6031 0.4009
-0.2181 -0.7384 0.4735
0.0353 -1.2293 0.4780
-0.6379 -0.7488 0.7643
-0.7418 -0.7763 0.5066
-0.7621 -0.7692 0.1816
-0.2284 -1.4992 0.4828
-1.1407 -0.8883 1.6413
-0.8038 -0.7087 0.5106
-0.6481 -0.7094 0.4396
-0.7429 -0.7575 0.5996
-0.8877 -1.0507 1.9140
-0.8209 -0.4605 0.3340
-0.1661 -0.7607 0.5508
-0.4015 -0.7992 0.8729
-0.3871 -0.7664 0.6452
-0.3329 -0.7013 0.5694
-0.6802 -0.7784 0.4105
-0.5523 -0.6809 0.3469
-0.2650 -0.7480 0.4062
-0.3339 -0.7581 0.3637
-0.0362 -0.1184 0.0670
-0.3744 -0.7575 0.4137
-0.7435 -0.7600 0.1444
-0.0227 -1.2773 0.5327
-0.0951 -0.1724 0.0357
-2.2134 -1.1185 0.8478
-0.1117 -0.1682 0.0427
-0.0553 -0.1248 0.0289
-0.6032 -0.7393 0.0330
-0.5668 -0.6960 0.0443
-0.6723 -0.7296 0.2361
-0.7683 -0.7725 0.1550
-0.6393 -0.7273 0.2321
-0.9530 -0.7162 0.3787
-0.8486 -0.7327 0.2708
-0.3533 -0.6029 0.5100
-0.7461 -0.7457 0.6047
-0.5470 -0.6309 0.4842
-0.6288 -0.7313 0.2466
-0.4837 -0.7377 0.4676
-0.5820 -0.7909 0.9636
-0.6978 -0.6769 0.4850
-0.0115 -1.3181 0.5665
-0.2273 -0.7846 0.5327
-0.2434 -0.7790 0.5149
-0.3688 -0.7990 0.6918
-0.3411 -0.8050 0.6552
-0.3492 -0.7729 0.6426
-0.2815 -0.7749 0.5458
-0.3677 -0.7727 0.6442
-0.3959 -0.7896 0.6656
-0.2814 -0.7734 0.4869
-0.2856 -0.8035 0.4983
-0.3696 -0.7928 0.5871
-0.3663 -0.7785 0.5510
-0.2854 -0.7947 0.4492
-0.3348 -0.7778 0.4904
-0.3727 -0.7736 0.5228
-0.5531 -0.7473 0.6994
-0.4545 -0.7794 0.5625
-0.6395 -0.7762 0.7421
-0.4450 -0.7525 0.5064
-0.3747 -0.7405 0.4137
-0.4370 -0.7835 0.6412
-0.4198 -0.7493 0.5726
-0.3278 -0.8023 0.4297
-0.4967 -0.7791 0.5226
-0.7715 -0.7548 0.5151
-0.4048 -0.7751 0.4203
-0.3679 -0.7321 0.3109
-0.6595 -0.7088 0.5209
-0.2801 -0.7708 0.4498
-0.4572 -0.7846 0.3868
-0.4392 -0.7583 0.3444
-0.4339 -0.7467 0.3222
-0.4178 -0.7721 0.3100
-0.4351 -0.7202 0.2114
-0.3300 -0.7784 0.3920
-0.3403 -0.7408 0.4829
-0.3979 -0.6662 0.2374
-0.4381 -0.7425 0.2273
-0.4510 -0.7599 0.2416
-0.3736 -0.7354 0.3200
-0.5047 -0.7157 0.1641
-0.4273 -0.7044 0.2468
-0.4292 -0.7517 0.2576
-0.3914 -0.7524 0.3008
-0.5196 -0.7531 0.2971
-0.3776 -0.7547 0.3485
-0.5020 -0.7190 0.2708
-0.4856 -0.7479 0.3003
-0.3917 -0.7472 0.4053
-0.3480 -0.7460 0.3409
-0.4766 -0.7578 0.2921
-0.4560 -0.7655 0.2242
-0.4701 -0.7294 0.2572
-0.3221 -0.7574 0.3797
-0.4410 -0.7405 0.2251
-0.3300 -0.7860 0.5540
-0.5764 -0.7479 0.5154
-0.4623 -0.7604 0.5317
-0.4602 -0.7634 0.5933
-0.2640 -0.7271 0.4286
-0.4588 -0.7876 0.5709
-0.5144 -0.7659 0.5366
-0.3173 -0.8156 0.5340
-0.3284 -0.7588 0.4787
-0.4149 -0.7640 0.6517
-0.4195 -0.7381 0.4191
-0.3801 -0.7567 0.6326
-0.3978 -0.7484 0.4537
-0.3239 -0.7573 0.4901
-0.5790 -0.7533 0.4995
-0.6299 -0.7341 0.8051
-0.5516 -0.6937 0.7839
-0.6634 -0.7331 0.5429
-0.0785 -1.2912 0.5396
-0.6190 -0.7530 0.7145
-0.6537 -0.7097 0.7089
-0.7585 -0.7572 0.6225
-0.4445 -0.7605 0.3755
-0.7059 -0.7460 0.5657
-0.4908 -0.7540 0.4589
-0.3457 -0.7106 0.3162
-0.4063 -0.7623 0.4314
-0.3372 -0.7584 0.3760
-0.2932 -0.7715 0.5350
-0.4528 -0.7315 0.5914
-0.4329 -0.7804 0.6403
-0.3111 -0.7477 0.4565
-0.5022 -0.7641 0.6815
-0.6656 -0.7380 0.7733
-0.4123 -0.8007 0.7086
-0.8096 -0.7461 0.3682
-0.5833 -0.7041 0.3753
-0.7225 -0.7421 0.3564
-0.6921 -0.7410 0.4302
-0.7351 -0.7245 0.4988
-0.6999 -0.7551 0.2501
-0.8484 -0.7339 0.5681
-0.4587 -0.7453 0.4845
-0.5981 -0.7283 0.5831
-0.6215 -0.7736 0.2153
-0.8138 -0.7355 0.5865
-0.7082 -0.7537 0.3593
-0.3282 -0.7440 0.3646
-0.5317 -0.7474 0.5311
-0.8020 -0.7707 0.6155
-0.8552 -0.7493 0.3699
-0.6405 -0.7744 0.5562
-0.2343 -0.7522 0.4675
-0.2743 -0.7547 0.5510
-0.5162 -0.7438 0.6931
-0.3663 -0.7574 0.5129
-0.3476 -0.7582 0.6321
-0.3379 -0.7413 0.6162
-0.4273 -0.7473 0.5482
-0.4114 -0.7411 0.5289
-0.5450 -0.7634 0.6825
-0.2667 -0.7195 0.4380
-0.7498 -0.7601 0.2648
-0.6624 -0.7578 0.5823
-0.7059 -0.7402 0.6062
-0.6704 -0.7298 0.5645
-0.8651 -0.7634 0.3577
-0.5290 -0.7299 0.2266
-0.5475 -0.7115 0.2404
-0.5448 -0.7315 0.2285
-0.5192 -0.7538 0.1983
-0.2749 -0.7553 0.5117
-0.6158 -0.7128 0.2641
-0.9201 -0.7653 0.4254
-0.3783 -0.7443 0.6708
-0.4957 -0.7305 0.7961
-0.6377 -0.7386 0.2952
-0.6236 -0.7414 0.2730
-0.6353 -0.7355 0.2582
-0.6792 -0.7489 0.2661
-0.5712 -0.7460 0.1609
-0.6064 -0.7555 0.3537
-0.5297 -0.7515 0.4581
-0.5088 -0.7438 0.2402
-0.4697 -0.7435 0.4298
-0.4843 -0.7648 0.5104
-0.5220 -0.7380 0.9354
0.0381 -1.2475 0.5102
-0.3169 -0.7521 0.4969
-0.2648 -0.7417 0.5119
-0.8001 -0.7306 0.3786
-0.7451 -0.7301 0.5270
-0.6066 -0.7421 0.4625
-0.5364 -0.7458 0.6807
-0.3176 -0.7471 0.6843
-0.2344 -0.7520 0.5511
-0.3177 -0.7488 0.6692
-0.4846 -0.7283 0.8732
-0.3717 -0.7641 0.6215
-0.4437 -0.7495 0.5082
-0.3527 -0.7511 0.5501
-0.6428 -0.7525 0.5051
-0.2825 -0.7367 0.4646
-0.5946 -0.7476 0.6443
-0.4048 -0.7353 0.6664
-0.0283 -1.2678 0.5396
-0.3738 -0.7445 0.7218
-0.0015 -1.2815 0.5201
-0.7102 -0.7420 0.4367
-0.8996 -0.7508 0.3532
-0.4229 -0.7289 0.2252
-0.4666 -0.7351 0.1903
-0.3814 -0.7557 0.4263
-0.4583 -0.6438 0.3688
-0.4992 -0.7507 0.4743
-0.3185 -0.7458 0.3764
-0.1973 -0.7510 0.5227
-0.2737 -0.7403 0.4306
-0.2599 -0.7438 0.4508
-0.2294 -0.7506 0.4905
-0.2832 -0.7788 0.5522
-0.4255 -0.7611 0.6624
-0.4907 -0.7345 0.7115
0.0656 -1.2186 0.5400
-0.5542 -0.7365 0.6743
0.0396 -1.2125 0.5628
-0.6658 -0.7409 0.7334
-0.3567 -0.7609 0.6736
0.1662 -1.3719 0.5101
-0.4340 -0.7541 0.6421
-0.0060 -1.1945 0.5495
0.1209 -1.4182 0.5421
-0.3919 -0.7567 0.6591
-0.7926 -0.6937 0.5189
0.0785 -1.2477 0.5359
-0.0638 -1.1450 0.5126
-0.0611 -1.4353 0.3982
-0.2076 -0.7432 0.5078
-0.4738 -0.7139 0.5637
-0.3275 -0.7376 0.3632
-0.4147 -0.7438 0.6067
-0.4673 -0.7093 0.6724
-0.2326 -0.7340 0.4710
-0.4273 -0.7298 0.2047
-0.4507 -0.7323 0.2180
-0.4834 -0.7256 0.7519
-0.3826 -0.7448 0.2912
-0.4210 -0.7145 0.1983
-0.4929 -0.7479 0.2949
-0.6119 -0.7543 0.5236
-0.4827 -0.7308 0.4959
-0.3073 -0.7391 0.6463
-0.3595 -0.7217 0.6341
-0.3563 -0.7558 0.6163
-0.1570 -0.7215 0.5246
-0.4099 -0.6999 0.3194
0.0525 -1.2238 0.5548
-0.4709 -0.7312 0.4182
-0.4074 -0.8033 0.8885
-0.0663 -1.2411 0.6064
-0.2182 -0.7706 0.6308
-0.2778 -0.7492 0.7159
-0.0034 -1.1599 0.5190
-0.1286 -0.7473 0.5885
-0.3309 -0.7232 0.6205
-0.2779 -0.7740 0.7387
-0.6654 -0.7464 0.7699
-0.3851 -0.7581 0.6422
-0.3160 -0.7428 0.4528
-0.3006 -0.7422 0.4365
-0.5544 -0.6897 0.5384
-0.5307 -0.7585 0.9509
-0.6052 -0.7077 0.4773
-0.6259 -0.7371 0.4207
-0.8446 -0.7188 0.2886
-0.8963 -0.7301 0.3075
-0.8131 -0.7101 0.5342
-0.0264 -0.1451 0.0384
0.0705 -1.2309 0.5315
-0.3531 -0.7144 0.5786
-0.5663 -0.7377 0.3673
-0.7109 -0.7242 0.1741
-0.6334 -0.7214 0.3110
-0.4071 -0.7054 0.2038
-0.3181 -0.7315 0.3492
-1.5223 -0.6205 0.7010
-0.7600 -0.7111 0.3387
-0.7105 -0.7308 0.1424
-0.6314 -0.7139 0.5639
-0.7091 -0.7193 0.5739

