-4.0170 -23.5296 0.6189
-0.0714 -0.8378 0.5184
0.8633 -5.2768 1.2662
-0.0382 -0.9856 0.8469
-0.1483 -0.9583 0.5389
7.0634 -18.8934 6.5446
-2.7510 -7.5222 2.3270
-0.2216 -1.0840 0.4692
-0.6075 -0.9462 1.2166
5.3658 -15.9141 9.0590
0.1388 -0.8373 0.6331
-0.6294 -0.9993 0.7009
-2.9027 -24.5695 8.7975
-0.4025 -1.0208 0.4924
4.9057 -15.3543 9.9554
0.0039 -1.0681 0.6603
-1.1083 -9.3464 4.4239
-0.1152 -0.9933 0.4945
-3.8429 -25.1666 5.3090
-0.4587 -1.0076 1.0856
6.0440 -19.3222 7.8124
-5.3271 -22.5191 3.7240
0.0998 -0.9553 0.6566
3.2595 -21.6023 7.1225
0.0078 -0.8676 0.6565
-0.5268 -0.9060 0.4812
0.2100 -0.8402 0.6879
-4.0886 -12.4218 0.5385
0.1076 -0.8096 0.5890
-0.0398 -0.9164 0.7158
4.6507 -12.5197 3.1418
-0.4215 -1.0168 0.3973
-0.6308 -0.9134 0.6894
0.1742 -0.9014 0.8222
-0.7734 -0.9984 1.0221
-0.5332 -1.0125 0.5143
-0.4391 -1.0168 0.4389
0.0654 -1.0412 1.4156
-4.5561 -9.4961 9.8065
-5.7056 -18.1228 14.1155
-0.2490 -0.9175 0.6678
-0.3807 -1.0130 1.2028
0.0086 -0.8654 0.8759
-0.5870 -0.8775 0.6148
-0.8233 -1.0302 1.0651
0.0029 -0.9544 0.6705
-0.6244 -1.1484 0.7267
-0.1360 -0.8522 0.8994
0.1552 -6.9591 2.1779
3.4781 -13.4274 5.1947
2.9247 -14.6007 11.7897
-2.0464 -22.5289 4.0355
-0.7075 -5.0937 1.4288
-0.3258 -1.2557 1.2201
-0.3009 -0.8516 0.9940
-0.1999 -0.9866 0.8017
-0.5830 -0.8929 0.5822
-0.6718 -0.8703 0.8588
-0.1920 -1.6543 1.0888
-0.5957 -1.2418 0.7000
-0.0583 -0.8529 0.5652
-0.4257 -0.9454 1.2978
-0.8578 -1.0148 1.1585
-0.4455 -1.0128 0.3461
-0.2323 -1.1682 0.4558
-1.7555 -12.0322 1.1712
0.1692 -0.8960 0.6592
-0.1921 -7.9918 0.9268
-0.6728 -1.0019 0.7701
-0.6390 -0.8762 0.6979
-0.7560 -1.0965 1.1648
-0.5494 -0.8583 0.7744
-0.4968 -0.8887 0.8274
-0.3226 -1.2219 1.5253
-1.4743 -4.9721 2.0057
-0.1884 -0.9274 0.7628
-0.3008 -0.8821 1.0616
-0.1888 -0.8560 0.5366
-2.9440 -8.8028 9.0345
-5.3171 -18.4667 15.1512
-4.9334 -22.2207 7.9001
-0.1652 -1.0568 0.4824
-0.3908 -1.0298 1.0543
-0.6237 -1.1332 0.8305
0.2372 -0.8457 0.8157
0.1391 -0.8204 0.6127
-0.0792 -0.8543 0.9083
-0.1696 -0.1366 0.5367
-0.3694 -1.1574 0.3983
0.1003 -0.8491 0.7673
-0.5407 -0.8829 0.6018
-0.5980 -0.9942 0.8346
1.7453 -16.1509 11.2736
-0.4656 -0.8530 0.9776
-0.2482 -1.0375 0.4395
-6.7000 -22.2436 11.4092
0.1974 -0.8604 0.8555
0.2134 -0.9221 0.9502
0.1150 -0.8818 0.9869
-0.7627 -0.8532 0.9272
-12.9588 -17.6998 13.9554
-0.1012 -0.9463 1.0004
-0.3622 -1.2619 1.1713
-10.1796 -23.8151 7.6153
-0.3779 -0.9884 0.4441
-0.3992 -0.8711 0.7583
-0.2157 -1.1394 0.5850
-0.1717 -0.9110 0.7283
0.2136 -0.8789 0.7874
-0.2623 -0.9999 1.4553
-0.1345 -0.8636 0.5485
-0.1571 -0.9010 0.7070
-0.4325 -0.9794 0.3568
-0.4623 -0.8881 0.3932
-0.2398 -0.8476 0.6894
-0.4817 -1.2125 0.5443
0.2519 -0.8897 0.7209
6.2696 -19.7916 7.8610
0.1679 -0.8832 0.6574
0.1079 -0.9040 0.8301
0.0814 -0.9444 0.7236
-0.4657 -0.9925 0.4789
-0.0177 -0.9479 0.6674
-0.3258 -0.9906 0.4019
-0.0997 -24.8783 4.3206
-3.3872 -21.3310 10.3135
-0.2864 -1.0131 0.5493
-0.2484 -0.9669 0.7315
0.1578 -0.9319 0.9690
0.1497 -0.9101 0.8883
-0.0083 -0.9708 1.0055
-0.4980 -1.2490 0.4966
-0.2793 -1.0857 1.2840
-0.0312 -0.9819 0.6350
-1.8049 -4.8566 5.3483
-0.0965 -0.9298 0.9712
0.1095 -16.7900 12.1685
-0.0401 -0.8776 0.5211
-0.2836 -0.9942 0.5037
-0.2382 -1.1535 0.5012
-0.0042 -1.3763 0.8379
-0.1985 -0.9979 0.7142
-1.0485 -2.5415 2.8174
-0.3733 -0.9928 0.6143
-0.3018 -1.0581 0.4901
-0.3292 -1.0337 0.5993
-0.4198 -1.0232 0.4164
-0.7362 -1.0900 1.0987
-0.4317 -1.1233 0.5079
0.0544 -1.0049 0.6168
-0.1481 -0.0720 0.5510
-0.1170 -0.1974 0.4880
-0.0748 -0.0347 0.4781
-0.2280 -0.2413 0.7236
-9.3806 -21.6371 8.0734
-0.4313 -0.9960 0.5512
-0.1613 -0.9925 1.0041
-2.3285 -15.9839 14.7301
-2.8984 -16.7158 14.8645
-0.1295 -0.1363 0.5132
-0.6336 -3.1311 4.0665
0.5120 -4.6228 5.2156
0.4842 -2.3611 2.8026
0.2272 -2.7134 3.1513
2.2005 -12.7164 12.8734
0.2731 -8.7520 8.9558
0.5275 -14.9235 13.1311
-0.5942 -7.4209 7.1373
2.0082 -8.1612 5.5701
1.3208 -5.9792 5.8118
3.7219 -14.5581 11.2764
0.1699 -1.0975 0.6235
1.3945 -4.2296 3.1399
-0.5921 -20.0229 10.9444
1.6359 -4.5511 3.6160
3.2983 -6.9618 2.9434
-1.7524 -6.1500 4.4550
2.1530 -7.9345 4.3508
4.7744 -16.5602 10.7825
-1.9555 -5.1192 4.3212
-6.3771 -17.5760 11.8681
0.2291 -3.4183 2.0905
-3.2004 -7.2914 4.1448
0.8006 -3.1486 3.8905
2.7860 -14.0046 14.2470
1.7156 -6.0997 3.1604
1.8487 -7.2984 1.6886
-0.6919 -13.4570 2.3990
9.4343 -19.6052 7.1780
3.3958 -23.5795 3.6308
-3.1010 -3.8136 3.5277
-2.4200 -5.9187 2.7725
-1.6924 -3.7587 2.0032
2.0814 -5.7187 2.1870
-7.2686 -17.9101 15.5191
-2.9936 -24.7105 1.3857
1.5947 -4.8422 2.3183
0.0824 -6.5288 4.4602
-1.1401 -6.2498 2.0361
0.3422 -6.5117 1.7188
-0.1993 -4.2434 1.1685
0.4055 -9.8744 4.4915
2.2633 -12.0593 3.1020
2.5266 -5.5882 1.8970
0.5382 -12.9279 1.5509
2.6445 -6.8298 1.9990
-2.3234 -6.2895 1.7341
-3.1173 -10.5492 6.8012
0.4580 -5.7679 3.8522
0.1712 -3.1179 4.2540
-4.9130 -8.1795 5.4295
5.7294 -11.9510 4.0102
1.9399 -7.9195 3.6501
-1.7315 -8.1831 1.0036
0.0454 -5.9815 3.7818
-8.4849 -21.4141 4.9874
1.3212 -6.4923 1.4671
-3.7300 -25.1084 7.8622
-4.5241 -7.3350 5.3282
-3.4041 -8.5995 5.8617
-0.7732 -4.4763 5.1474
-2.7706 -4.6275 4.3342
-2.0857 -5.9846 1.3104
1.8203 -6.3110 3.1311
-2.4139 -6.0330 2.1275
-1.0373 -6.3981 0.7514
1.1251 -5.2119 2.7119
-0.9219 -6.9378 2.3420
-2.2766 -21.3403 8.4883
-4.7681 -17.8554 14.2488
8.0928 -17.2776 7.9981
5.7297 -14.1536 5.1006
0.3530 -4.9049 5.1205
-8.3613 -21.1447 9.6204
6.0633 -22.8551 4.9300
-0.7003 -9.4089 1.5686
0.0906 -0.9893 1.2323
1.5903 -22.0627 7.4602
4.5928 -12.8933 7.7042
-2.5613 -5.6807 2.5582
-2.1166 -5.4020 2.3907
-0.3658 -5.0630 4.5578
0.3265 -5.8812 1.9054
1.1887 -5.6249 4.9859
-1.8733 -6.0490 2.2460
-2.6965 -7.1901 4.5382
-3.2377 -21.6275 0.8029
-1.0144 -10.8588 1.6596
-2.1035 -6.8169 0.5334
-2.1971 -5.3379 1.1989
0.8444 -3.0064 4.5805
-0.7074 -0.6310 0.3330
0.9172 -10.9292 6.3356
1.3089 -8.1856 2.8515
0.3101 -7.7589 4.9526
0.2393 -6.0885 5.5672
-1.0097 -12.5715 4.2121
8.5761 -21.2260 6.8909
3.1155 -10.5837 2.9842
-1.7426 -6.2772 1.0052
-8.4693 -24.7412 6.0145
-2.0038 -6.3680 1.6170
-1.6847 -6.5132 1.1774
-0.1407 -2.5393 0.5022
-3.9274 -18.9026 11.5191
0.4241 -6.9495 7.7474
2.1253 -15.2502 4.1527
-0.2889 -7.4579 4.5131
5.1269 -14.1867 4.2679
1.1086 -20.9803 8.4109
1.9765 -9.6363 2.1423
-0.7703 -9.7345 1.4741
-2.4294 -7.0343 0.5993
-1.7159 -8.3621 7.9884
1.6564 -14.2284 14.2000
-1.9284 -13.8376 3.8795
-3.5275 -8.6144 2.6686
-2.3606 -23.4527 1.2378
-6.4547 -9.2666 6.1082
-12.9211 -19.8058 11.8817
-1.3646 -13.3272 3.4577
-1.3879 -14.8222 5.7042
4.4769 -10.5319 3.1768
2.4419 -13.8521 12.7640
0.8524 -11.1629 1.6678
-0.7057 -10.6962 2.9640
-2.3613 -4.2794 1.6284
0.3205 -13.7649 15.0548
2.7316 -14.0674 2.5381
4.1091 -12.3220 3.8017
-0.4228 -0.5614 0.4924
-2.5676 -13.8776 2.0970
-5.3430 -21.5400 7.3112
-6.1027 -18.9111 1.4279
0.1630 -1.5642 1.0204
7.5262 -19.9785 8.4511
1.6467 -12.1458 12.6308
0.0239 -9.6491 2.3525
2.0945 -5.8847 2.6178
3.2861 -10.7415 12.3023
9.6475 -19.9681 6.5246
8.1231 -20.2069 6.9505
5.3431 -14.0810 9.4605
1.9081 -23.2983 5.4281
-9.0217 -25.9882 4.4815
0.8887 -3.8378 0.9734
-0.8733 -0.6743 0.3795
-0.6357 -20.8749 10.1115
5.8783 -19.0084 9.2668
1.2060 -20.7575 7.6009
-1.4992 -1.8284 1.4431
-0.8215 -0.8182 0.2226
0.8920 -11.6980 13.8330
-8.6959 -15.8203 13.5895
-3.9229 -20.0372 1.6731
-3.3643 -22.4237 6.3776
-1.6905 -3.6757 1.1835
-7.0964 -18.1962 16.7114
-2.1552 -14.1843 16.9359
0.6861 -19.3593 11.5152
0.1286 -23.7711 2.2970
-4.8914 -21.7476 0.0828
-4.2748 -21.2918 9.4911
-7.3633 -21.8060 6.0693
3.8924 -21.3914 7.1814
5.0515 -17.3173 9.3288
2.7883 -21.4983 8.0039
2.3675 -22.8660 5.8146
3.4889 -13.6547 12.9705
-4.4389 -22.6624 2.5913
-7.2601 -23.3362 4.0529
-8.0400 -21.5381 9.0170
-2.8320 -21.4359 9.8790
-10.8369 -22.2814 6.5744
-0.0626 -25.9417 4.0980
-2.1408 -21.9153 10.0476
-0.9642 -21.5682 9.4171
3.8679 -14.9910 10.0828
1.1391 -10.8519 13.3810
3.5606 -15.3210 13.1700
-1.1244 -14.9112 14.0781
4.1597 -16.7029 3.1963
2.3475 -6.4946 1.4238
-13.2108 -18.9047 13.7417
-1.8323 -26.7285 3.9376
-2.8119 -5.3081 5.1421
1.1007 -20.8122 9.3404
-3.4636 -13.7796 8.8518
-3.4031 -7.3835 0.4573
-0.1108 -5.0455 0.5705
-0.9057 -3.0614 2.5978
-0.5470 -5.0890 2.2248
-1.1073 -7.0892 1.3452
-3.2015 -11.4448 4.8618
-2.7063 -12.0690 8.6863
-1.4970 -9.7818 4.1961
-1.7239 -5.3657 -0.5263
-9.8540 -22.4088 -1.4642
-0.3981 -14.1045 8.0025
-2.6742 -16.8544 3.0726
-4.2503 -15.6763 6.9363
-10.7198 -17.7957 8.0070
-9.1999 -20.4744 3.6309
-1.6914 -19.6799 5.4156
-1.8920 -20.8809 2.2263
-0.0949 -20.7072 2.7493
0.2830 -20.1831 4.7066
-8.4107 -17.3966 2.0829
-3.5928 -19.0344 7.0227
-3.2061 -12.3846 -0.5508
-2.0195 -14.4695 8.4272
-4.0408 -19.5091 6.2238
-2.8941 -16.2804 10.6201
-9.8417 -26.0829 -1.1595
-11.7622 -25.2532 4.3882
-1.9354 -18.7745 11.2196
-2.3324 -19.2348 9.2967
-1.8142 -15.0481 14.1568
1.4248 -20.3658 4.9597
-7.7895 -18.2583 14.7317
-11.9759 -20.8826 4.9193
-6.7503 -19.5304 8.7852
4.7527 -21.0751 2.6208
-4.4317 -20.7885 3.3276
-0.0382 -18.4604 11.1415
0.0527 -17.7733 11.4448
4.6263 -21.6127 2.5698
-1.5812 -19.4482 11.0346
0.3506 -18.3033 9.8392
1.0812 -21.2591 1.3776
1.1095 -19.8139 8.0857
0.6953 -20.7449 4.2678
-2.1828 -17.1880 13.9362
0.1866 -19.7750 5.9031
-5.7548 -19.8022 8.5271
1.8468 -20.2554 4.8941
0.0513 -19.4008 7.4948
-12.0863 -20.8080 5.3802
-1.7536 -19.0555 10.3528
-1.3946 -19.2478 9.6907
-12.4044 -19.3736 7.7197
-11.7800 -20.5139 6.4917
-3.3334 -18.9825 12.9139
0.8715 -20.7233 3.0806
-7.8391 -20.8277 -0.2592
-9.7373 -20.0918 4.9452
-9.5429 -20.8787 4.8965
-0.9860 -21.0473 3.4980
-1.5613 -21.0409 2.8785
-5.2108 -19.0607 10.5441
-6.6419 -20.9791 2.1648
-7.9710 -20.9604 5.1604
-8.5229 -20.0925 6.8781
-6.4679 -20.4144 11.2518
-8.3990 -20.3573 8.2781
-8.3602 -20.0027 9.0356
-6.4014 -20.5100 5.9698
-3.2258 -21.1942 0.0260
-3.5247 -21.2382 1.3918
-1.3873 -19.7084 8.8646
-9.0547 -19.5567 11.8551
-1.6534 -19.9679 7.6324
-6.0845 -20.7071 0.0729
-10.5985 -19.6322 6.8278
-8.8151 -19.6273 9.1766
-2.4612 -17.4440 12.8796
-1.1266 -21.4579 4.8255
-1.9857 -21.6507 0.6546
-9.5909 -19.8801 10.4438
1.5443 -14.8616 3.2486
-14.1841 -38.5383 2.3777
-7.4988 -26.1983 2.1736
-1.5581 -4.2696 -0.7417
-6.7302 -12.2350 0.9244
-1.1638 -11.8153 4.1070
-5.7449 -9.4834 1.7294
-3.7782 -5.3573 -0.4696
-3.3159 -6.4974 -0.4251
-2.9221 -6.1796 -0.1278
-2.8364 -5.2809 1.1574
-2.6207 -6.3684 0.3749
-3.9063 -6.1643 -0.5525
-3.9936 -5.2869 2.3855
-0.1000 -0.6746 0.3929
-3.2686 -7.1303 2.2703
-3.4794 -6.0727 0.6611
-2.8352 -8.3570 -0.7439
-3.9187 -6.7579 0.1868
-4.3239 -5.7336 -0.3219
-4.0558 -5.3978 -1.3959
-3.2082 -5.9153 2.3431
-0.2439 -0.7734 0.3491
0.0440 -0.6854 0.2612
-0.0476 -0.6819 0.4061
-0.0422 -0.7195 0.2046
0.0248 -0.6875 0.2112
-0.1629 -0.6702 0.6231
-0.1591 -0.6523 0.5339
-0.2367 -0.7337 0.3583
-0.1660 -0.7414 0.1468
0.1104 -0.7426 0.3877
0.0862 -0.6631 0.2788
0.0918 -0.6941 0.2567
0.0876 -0.6846 0.2224
-0.1524 -0.7476 0.3287
0.0417 -0.6819 0.3010
-0.0202 -0.7256 0.1837
-0.0026 -0.6873 0.1983
-0.0441 -0.7149 0.1910
0.1027 -0.7434 0.4928
-0.0313 -0.6627 0.3431
-0.0660 -0.6540 0.3647
-0.1834 -0.6927 0.2338
-0.1565 -0.6261 0.6225
0.1021 -0.7506 0.5327
0.0762 -0.6777 0.2087
-0.1918 -0.8033 0.0913
-0.1965 -0.6231 0.4773
-0.2063 -0.6509 0.4273
-0.1111 -0.7216 0.2716
-0.0616 -0.6847 0.4981
-0.0595 -0.7948 0.5422
0.0243 -0.7788 0.4802
-0.1999 -0.6337 0.6503
-0.0361 -0.7096 0.2388
0.0504 -0.7162 0.5737
0.0620 -0.6651 0.3685
-0.1448 -0.7275 0.2163
-0.0281 -0.6130 0.2473
-0.0022 -0.0240 0.1282
0.1222 -0.5763 0.2270
0.1166 -0.6462 0.2502
0.0477 -0.6714 0.6620
0.0800 -0.7840 0.3000
0.1224 -0.6799 0.3368
0.0537 -0.6835 0.4579
0.0652 -0.6970 0.2453
0.0713 -0.6782 0.1796
-0.0889 -0.7266 0.3154
-0.0725 -0.6765 0.2707
-0.0712 -0.6304 0.1881
-0.0997 -0.7153 0.2031
-0.1047 -0.7229 0.1921
-0.1395 -0.6975 0.1744
-0.1828 -0.6838 0.2130
-0.0175 -0.6112 0.3421
0.1096 -0.7191 0.3579
0.1018 -0.6905 0.5610
0.1157 -0.6846 0.2048
-0.0125 -0.6713 0.1617
0.0748 -0.6512 0.3149
-0.0568 -0.7000 0.2940
-0.0387 -0.7142 0.2816
-0.0508 -0.7367 0.2327
0.0997 -0.6506 0.5852
0.1093 -0.7423 0.4201
-0.1543 -0.6410 0.3791
-0.3371 -1.2208 0.6981
0.0292 -0.7139 0.2584
0.1077 -0.6745 0.4592
-0.0381 -0.6972 0.6655
-0.0351 -0.7142 0.6000
-0.0390 -0.7251 0.3812
0.0003 -0.7219 0.2105
-0.1012 -0.6857 0.2332
-0.4590 -1.6649 0.3913
-0.0168 -0.7279 0.1636
0.2116 -0.6790 0.2958
0.1530 -0.5457 0.5124
0.2028 -0.6976 0.2739
0.1711 -0.6121 0.3584
0.1792 -0.6624 0.3626
0.1717 -0.6960 0.4049
0.1676 -0.7084 0.3927
0.1283 -0.6805 0.5621
0.1793 -0.7453 0.2995
0.1643 -0.6354 0.2321
0.1132 -0.6700 0.3812
0.0859 -0.6661 0.4062
0.1213 -0.6754 0.1820
0.1137 -0.7249 0.2011
0.0955 -0.7078 0.2128
0.0927 -0.7255 0.2051
0.0444 -0.6437 0.3071
0.0704 -0.6908 0.1523
0.0134 -0.6651 0.3265
-0.2164 -0.7325 0.3150
0.0416 -0.7485 0.1528
-0.0197 -0.7322 0.3425
-0.0843 -0.6847 0.1305
-0.1852 -0.7646 0.3358
0.0134 -0.6873 0.1751
-0.0390 -0.6599 0.1254
-0.0121 -0.7235 0.1514
-0.1057 -0.6931 0.2805
-0.0686 -0.7502 0.1985
-0.0423 -0.6734 0.1641
-0.1104 -0.6866 0.3378
-0.1463 -0.7470 0.4318
-0.0236 -0.6804 0.1448
0.2201 -0.6535 0.3968
-0.1413 -0.6848 0.5170
0.2235 -0.7524 0.6054
0.2192 -0.6526 0.3333
0.1622 -0.6569 0.5672
0.1399 -0.5965 0.5676
0.1727 -0.6879 0.4124
0.0313 -0.6902 0.1956
0.0360 -0.6747 0.5984
-0.0911 -0.7002 0.6738
-0.1784 -0.8813 0.1135
0.0346 -0.6321 0.4410
-0.0201 -0.7389 0.4945
-0.1518 -0.6562 0.4046
-0.1140 -0.6735 0.6430
0.2127 -0.6749 0.2879
0.1826 -0.6985 0.4257
0.1797 -0.7647 0.5445
0.1670 -0.6528 0.4277
0.1776 -0.6745 0.3575
0.1947 -0.6698 0.2481
0.0677 -0.7133 0.6421
0.0031 -0.1805 0.4320
-0.0203 -0.6636 0.4668
-0.0425 -0.7096 0.4635
-0.0907 -0.6719 0.4138
-0.0844 -0.6941 0.2135
-0.2241 -0.6971 0.5259
0.0357 -0.6051 0.4902
0.0800 -0.7491 0.2474
0.1251 -0.7416 0.2204
0.0876 -0.7049 0.1534
-0.0918 -0.7182 0.3228
0.2590 -0.5841 0.4824
0.2796 -0.6637 0.5167
0.1703 -0.7785 0.3791
0.2493 -0.6942 0.4037
-0.1332 -0.7870 0.2256
-0.0971 -0.8614 0.3713
0.0098 -0.6995 0.3235
0.1817 -0.6616 0.1683
0.1111 -0.8047 0.2722
0.1071 -0.6903 0.3075
0.1139 -0.6794 0.4781
0.1047 -0.6716 0.2226
0.3256 -0.6674 0.4722
0.0666 -0.2005 0.1625
0.3102 -0.6974 0.4622
0.0435 -0.6220 0.3579
-0.1732 -0.7497 0.2811
-0.0661 -0.6820 0.2239
0.0926 -0.3745 0.3012
-0.1878 -0.8051 0.4096
0.0561 -0.4985 0.1881
0.1993 -0.6818 0.2184
0.1849 -0.6720 0.2176
0.3410 -0.6798 0.6243
0.3644 -0.7472 0.4768
0.3000 -0.6532 0.5779
0.2922 -0.6733 0.6783
0.2372 -0.6616 0.3619
0.2352 -0.7028 0.4695
0.0420 -0.6816 0.3954
0.0224 -0.6429 0.4505
0.0587 -0.6894 0.2913
-0.1208 -0.7254 0.4615
-0.1378 -0.7343 0.3824
-0.0190 -0.6933 0.1966
-0.0114 -0.6689 0.1386
0.3635 -0.5823 0.2083
0.3560 -0.6106 0.1742
-0.0026 -0.8366 0.2564
0.1115 -0.6710 0.3510
0.2872 -0.6359 0.1555
0.0185 -0.7732 0.2056
0.3448 -0.6407 0.2213
0.0368 -0.7037 0.1728
0.0126 -0.6749 0.3036
0.2392 -0.6689 0.2090
-0.0608 -0.6724 0.1787
0.3054 -0.6253 0.1633
-0.0198 -0.6708 0.2007
0.0645 -0.6768 0.1568
0.0708 -0.6811 0.1772
0.2985 -0.6741 0.1763
-0.0334 -0.6872 0.1702
0.1979 -0.2603 0.2060
0.2525 -0.6794 0.1700
0.1212 -0.6622 0.1849
0.1641 -0.6692 0.1504
0.2583 -0.6631 0.2036
0.0907 -0.6773 0.2533
0.0939 -0.6792 0.3620
0.1081 -0.6702 0.3405
0.1340 -0.6816 0.2189
0.1421 -0.6541 0.2203
0.1376 -0.6652 0.3014
0.1498 -0.6728 0.3545
0.1655 -0.6900 0.1900
0.2006 -0.8137 0.1795
0.1628 -0.6654 0.2818
0.1956 -0.6486 0.3780
0.1976 -0.6679 0.3717
0.0834 -0.1086 0.1433
0.1527 -0.6683 0.3070
0.2180 -0.6590 0.3162
0.1355 -0.6914 0.1613
0.1203 -0.7422 0.3490
0.0438 -0.7078 0.2528
0.0866 -0.6972 0.2893
0.2804 -0.6747 0.2787
0.2714 -0.6554 0.1796
0.1379 -0.6882 0.2551
0.3636 -0.6242 0.2108
0.3310 -0.6334 0.2091
0.1175 -0.6705 0.2887
0.1159 -0.6863 0.2136
0.0631 -0.6868 0.2671
0.0663 -0.6742 0.1725
-0.0179 -0.7371 0.4907
0.3280 -0.6269 0.2027
0.0763 -0.6885 0.2370
-0.2839 -0.8881 0.1742
-0.0911 -0.5711 0.3110
0.4330 -0.6651 0.4001
0.0009 -0.7008 0.1867
0.4222 -0.6932 0.4005
0.3925 -0.6760 0.3448
0.3831 -0.6639 0.2961
0.3869 -0.6989 0.3173
0.3880 -0.6600 0.5408
0.3551 -0.6637 0.2440
-0.0872 -0.6951 0.3058
0.3672 -0.6820 0.3723
0.3663 -0.7069 0.4652
0.0232 -0.7207 0.3189
0.3319 -0.6795 0.3817
0.0654 -0.7523 0.2965
0.0639 -0.6839 0.3532
0.2853 -0.6647 0.4111
0.3750 -0.6526 0.2043
0.2788 -0.6755 0.3094
0.0859 -0.6805 0.4225
0.1183 -0.6693 0.5386
0.3803 -0.6601 0.2599
0.4457 -0.6669 0.3727
0.3535 -0.6584 0.2574
0.4299 -0.6809 0.4312
0.1111 -0.6643 0.4548
0.0719 -0.6658 0.5468
0.4405 -0.6920 0.3475
0.2725 -0.6637 0.3763
0.3235 -0.6768 0.4619
0.3887 -0.7184 0.3476
0.3837 -0.6837 0.4250
0.3836 -0.6718 0.6418
0.3356 -0.6829 0.4472
0.1080 -0.6735 0.6373
0.0571 -0.6224 0.6050
0.1243 -0.1233 0.1332
-0.0447 -1.0893 0.7385
-0.0672 -0.2248 0.5053
-0.0315 -0.1468 0.3672
0.1099 -0.6425 0.6128
0.1980 -0.2063 0.1513
0.0490 -0.6302 0.5188
0.1689 -0.1630 0.1720
0.1449 -0.0630 0.1231

