0.1997 -0.5476 0.5932
0.2043 -0.6199 0.7871
0.3988 -1.3598 1.7247
0.1794 -0.6269 0.7339
0.3306 -1.1248 1.5458
0.1932 -0.5498 0.8303
0.3707 -1.2200 1.7797
0.1831 -0.5359 0.7540
0.2434 -0.9159 1.3142
0.2965 -0.9493 1.5941
0.2945 -0.9231 1.5980
0.0811 -0.5952 0.9941
-0.0087 -0.6612 0.8289
0.0026 -0.7049 0.9547
-0.0321 -1.1005 1.5047
-0.0551 -0.8765 1.4745
-0.0477 -0.9301 1.6007
-0.0828 -0.9254 1.5897
-0.0796 -0.8304 1.4049
-0.1037 -1.1609 1.8742
-0.1490 -1.0136 1.3158
-0.1529 -1.0827 1.4817
0.2206 -0.5842 0.6464
0.1934 -0.7718 0.8467
0.1928 -0.8386 0.8848
0.1212 -0.8168 0.8602
-0.2258 -0.9382 0.9349
0.6847 -1.5028 0.5859
0.2072 -0.6042 0.8546
0.3301 -1.2176 1.5095
0.1808 -0.7688 0.9986
-0.1077 -0.8140 0.8134
0.0552 -0.6261 0.9975
-0.0154 -0.8191 1.0100
-0.0450 -0.6268 0.9618
0.0488 -0.0317 0.0631
0.1555 -0.6241 0.7004
0.0532 -0.8193 0.8600
-0.0353 -0.7185 1.1662
0.0080 -0.5912 0.9826
0.0624 -0.0279 0.0773
-0.0574 -0.5666 0.9353
0.0515 -0.0316 0.0868
0.0432 -0.0613 0.0447
0.6195 -0.7248 0.6610
0.1930 -0.4989 0.8263
0.2554 -0.9480 1.5447
0.0808 -0.6468 1.0623
0.0395 -1.1394 1.2262
0.0832 -0.0439 0.0350
0.0762 -0.1416 0.2277
0.1419 -0.7497 1.1767
0.0694 -0.0461 0.0352
0.0552 -0.1559 0.2529
-0.0056 -0.2920 0.3678
-0.2118 -0.8706 0.9155
0.6845 -0.6111 0.7175
0.9984 -0.6617 1.1057
0.8619 -0.6381 0.9577
1.1966 -1.6296 0.7269
0.6252 -1.1701 0.2068
0.0965 -0.8562 0.9746
0.3009 -0.9593 1.5635
0.1475 -0.7944 1.0958
0.1380 -0.7003 1.1365
0.0528 -0.8149 0.9324
-0.0105 -0.6567 0.8521
-0.0339 -0.5214 0.7724
-0.0508 -0.4893 0.7687
-0.1154 -1.0132 1.1137
-0.1260 -1.2265 1.2876
-0.0908 -0.6992 1.0888
-0.1144 -0.5824 0.6952
-0.1167 -0.5950 0.6824
1.3729 -1.4772 1.1564
0.7685 -0.7932 0.6222
0.1177 -0.6486 0.9372
0.1189 -0.7008 0.9294
0.0626 -0.7195 0.8835
0.0199 -0.6858 0.7996
0.1698 -1.0427 1.6436
0.0478 -0.7808 1.1057
-0.0084 -0.6714 0.8111
-0.0131 -0.6055 0.9187
-0.0449 -0.6140 1.0008
0.7035 -0.5286 0.9734
0.8603 -0.6246 0.8356
0.8319 -1.0641 0.5291
1.0299 -0.7279 1.0061
0.2874 -0.9523 1.1035
0.1672 -0.7976 0.7985
0.1854 -0.7287 0.9043
0.2670 -1.1505 1.4305
0.2638 -1.1224 1.4518
0.3135 -1.0848 1.7094
0.0506 -0.7120 0.9111
0.1754 -1.5131 1.6177
0.0894 -0.6961 0.9212
0.0391 -0.7173 0.9968
0.1677 -0.9179 1.5056
-0.0528 -0.7283 0.8089
-0.0714 -0.7330 1.2462
-0.0052 -0.6835 1.1337
-0.1252 -0.6493 0.9724
-0.1282 -0.6873 0.7871
-0.1334 -0.6951 0.6480
-0.1357 -0.6440 0.8858
0.9050 -0.6689 0.9195
0.7663 -0.7689 0.6490
1.0785 -0.9013 1.0036
0.2113 -1.5482 0.6142
1.2832 -0.8876 1.2645
0.9183 -0.5596 1.0740
0.8079 -0.6183 1.1923
1.0957 -2.2089 0.8927
0.1308 -0.2495 0.1403
0.2738 -1.1990 1.4299
0.1466 -0.7866 1.1192
0.0530 -0.8331 0.8380
0.0836 -0.8143 1.0477
0.0439 -0.7741 1.1770
0.0018 -0.7797 1.0036
0.0487 -0.7652 1.0529
-0.0131 -0.8366 0.8104
-0.0719 -0.7626 1.3215
-0.1051 -0.7788 0.7816
-0.1025 -0.7713 1.2992
-0.0368 -0.6964 1.2164
-0.1779 -0.9259 1.2141
-0.1812 -0.8876 1.2646
-0.1918 -0.9040 0.6871
-0.2057 -0.8728 1.2599
-0.1019 -0.7515 1.0940
-0.1269 -0.7496 1.0556
0.8046 -0.6102 1.1552
0.2292 -1.3174 1.3160
-0.0204 -1.1767 1.1191
-0.0667 -0.5613 0.6237
0.1447 -0.1238 0.1093
0.9013 -0.5542 0.9624
0.1954 -0.8204 1.3825
0.0883 -0.7888 1.2892
0.0451 -1.0895 1.2579
-0.0706 -0.9748 1.1656
-0.1493 -0.9102 1.1279
0.9142 -0.6893 1.0436
0.1121 -0.0605 0.0415
0.0017 -0.7100 1.0095
1.1081 -0.7707 1.1556
0.1835 -1.0989 1.2103
0.2460 -0.8980 1.5141
0.1790 -0.5870 1.0657
0.2309 -1.3462 1.8234
0.0519 -1.0149 1.5207
-0.2295 -1.5093 1.3623
-0.0978 -1.2285 1.3871
-0.1906 -1.1857 1.4344
-0.0921 -1.2793 1.6827
-0.1885 -1.1257 1.5038
-0.1891 -1.1812 1.1799
-0.1723 -1.1699 1.3831
-0.1148 -0.8442 1.4265
1.0381 -1.0135 1.3814
0.1665 -0.1656 0.1543
0.5769 -0.5717 1.5974
0.2660 -1.3551 1.3488
0.2186 -0.9169 1.5816
0.1687 -1.2911 1.7543
0.1452 -1.0885 1.5372
-0.1980 -1.2974 1.7296
-0.1213 -0.9203 1.4929
-0.2908 -1.3235 1.7032
1.1720 -0.8333 1.4552
0.1895 -0.5158 0.6109
-0.1139 -0.3504 0.5621
0.0746 -0.1571 0.2688
0.1811 -0.4940 0.6649
0.1760 -0.5903 0.9486
0.1090 -1.4159 1.4554
0.2067 -1.0904 1.8105
-0.2186 -1.6406 1.8923
-0.0874 -1.0733 1.6743
-0.2043 -1.1406 1.8068
0.0680 -0.0331 0.1644
-0.0338 -0.3233 0.3676
-0.1056 -0.1913 0.2457
0.2067 -0.6108 0.9790
0.3574 -1.3997 2.0050
0.3013 -1.4266 1.8586
0.3203 -1.6032 2.1485
0.1835 -1.4551 1.8275
0.1223 -1.4284 1.9722
0.0942 -1.2664 1.9549
0.0130 -1.0930 1.5417
-0.0561 -1.5177 1.8916
-0.1244 -1.6258 2.1592
1.2745 -0.7675 1.6330
0.5049 -0.2727 0.7467
0.0709 0.0107 0.0873
-0.0814 -0.1717 0.2333
0.0595 -0.0686 0.2345
-0.2954 -1.4335 2.0007
-0.2046 -1.7697 1.7247
0.0282 -0.4835 0.8879
-0.0894 -0.1239 0.2087
0.2024 -1.6674 2.3993
0.2042 -1.5903 2.5264
0.0855 -0.0478 0.1688
0.1781 -0.6178 0.7547
0.0650 -0.0778 0.2362
0.0679 -0.0271 0.1764
0.2108 -0.6272 0.7646
0.4050 -1.6372 2.6808
0.1515 -0.1142 0.1410
0.6716 -1.4749 0.5922
0.1766 -0.6001 0.9036
0.4109 -1.8110 2.7614
0.0508 -0.5903 0.9793
0.1503 -0.5623 0.6139
0.1760 -0.5858 0.6367
0.1008 -0.4956 0.6869
0.1812 -0.8402 1.3835
0.0736 -0.6208 0.6997
0.1622 -0.4662 0.8528
-0.0657 -0.5909 0.7045
0.6540 -0.6525 0.9245
0.2292 -0.6129 0.6975
0.2451 -0.8727 0.9900
0.2289 -0.6049 0.7488
0.2264 -0.5917 0.7917
0.2041 -0.5366 0.7296
0.2877 -0.8422 1.3182
0.1813 -0.6326 0.8005
0.2481 -0.8927 1.3408
0.1784 -0.6126 0.8082
0.1664 -0.5257 0.7273
0.1523 -0.6233 0.7305
0.1848 -0.6714 0.9648
0.1555 -0.6145 0.7804
0.1283 -0.6162 0.7231
0.1515 -0.6075 0.9128
0.1777 -0.8524 1.2771
0.1347 -0.8737 1.1080
0.1037 -0.3516 0.5314
0.1006 -0.6107 0.6621
0.1258 -0.5991 0.8506
0.0998 -0.6222 0.7300
0.0877 -0.3477 0.4749
0.1027 -0.6047 0.7704
0.1133 -0.4492 0.7755
0.1017 -0.5954 0.7888
0.1002 -0.6037 0.8282
0.0733 -0.6252 0.6762
0.1145 -0.4496 0.8212
0.0997 -0.5891 0.8899
0.0777 -0.6115 0.7198
0.0744 -0.6138 0.7522
0.0996 -0.5925 0.9231
0.0998 -0.5857 0.9720
0.1022 -0.6558 1.0405
0.0775 -0.5965 0.7907
0.0921 -0.4249 0.7606
0.0754 -0.5984 0.8513
0.0478 -0.6227 0.6753
0.0485 -0.6224 0.7013
0.0585 -0.9128 1.3258
0.0492 -0.6128 0.7517
0.0494 -0.6096 0.7777
0.0771 -0.4755 0.8629
0.0536 -0.5901 0.8127
0.0228 -0.6198 0.6720
0.0506 -0.5888 0.9486
0.0501 -0.6030 0.9381
0.0238 -0.6156 0.7251
0.0574 -0.5522 1.0395
0.0260 -0.5962 0.8493
-0.0012 -0.6130 0.6932
0.0050 -0.5863 0.8096
0.0036 -0.5772 0.9605
-0.0317 -0.6388 0.6646
-0.0203 -0.5899 0.7858
-0.0219 -0.5855 0.8367
-0.0233 -0.5943 0.8194
-0.0183 -0.5747 0.9561
-0.0504 -0.6126 0.7535
-0.1045 -0.9075 1.5913
-0.0440 -0.5743 0.9017
-0.0704 -0.6053 0.7765
-0.0361 -0.6177 0.6821
-0.0684 -0.5998 0.8551
-0.0641 -0.5981 0.8282
-0.0634 -0.5851 0.8889
-0.0623 -0.5638 1.0310
-0.0641 -0.5656 0.9727
-0.2053 -0.9448 1.1622
-0.1834 -0.9053 1.4497
-0.1086 -0.5549 0.9546
0.0079 -0.0915 0.2323
-0.1133 -0.5843 0.8852
-0.1189 -0.6061 0.8358
-0.1172 -0.5936 0.9544
-0.1394 -0.5894 0.9193
-0.1460 -0.6132 0.7555
-0.1366 -0.5883 0.7034
-0.1492 -0.5692 1.0161
-0.0017 -0.6091 0.6591
0.1260 -0.5888 0.9150
0.1978 -0.5430 0.5918
0.2412 -0.6262 0.8891
0.2294 -0.5888 0.8937
0.1296 -0.6231 0.7004
0.1288 -0.5985 0.9001
0.0779 -0.6046 0.7710
-0.0295 -0.5135 0.8370
0.0270 -0.6077 0.6878
0.0290 -0.5892 0.8125
-0.0453 -0.8707 1.0787
-0.0195 -0.5841 0.9131
-0.0854 -0.5810 0.8563
-0.2192 -0.8634 0.9556
-0.1329 -0.5779 0.7759
-0.1339 -0.5805 0.7506
-0.1591 -0.5851 0.7562
-0.1537 -0.5834 0.6975
-0.0969 -0.5524 0.6093
-0.2020 -0.6249 0.7139
-0.1834 -0.5834 0.6457
-0.1520 -0.2303 0.4272
-0.1804 -0.5303 0.6927
-0.2055 -0.5799 0.7242
-0.0903 -0.2576 0.5302
-0.2290 -0.5793 0.7518
-0.0245 -0.1011 0.2692
-0.2330 -0.5870 0.6765
0.3148 -1.5883 0.3913
0.2652 -1.4823 0.3683
0.0820 -0.5444 0.5945
-0.0532 -0.5579 0.6133
-0.1785 -0.8213 1.2374
-0.1967 -0.5720 0.7968
-0.3386 -0.8941 1.1628
-0.2193 -0.5712 0.7950
-0.1298 -0.2557 0.4732
-0.2204 -0.5158 0.7656
-0.2094 -0.5326 0.7366
-0.4263 -0.8530 1.3761
-0.2449 -0.5211 0.8196
-0.2460 -0.5251 0.8004
-0.2489 -0.5321 0.7222
-0.2311 -0.4609 0.8484
-0.3033 -0.5553 0.9615
-0.2475 -0.5278 0.6914
-0.4596 -0.8472 1.3692
-0.2931 -0.5546 0.9001
-0.2832 -0.5496 0.8352
-0.2496 -0.5805 0.6551
-0.2512 -0.5871 0.6368
-0.2521 -0.5229 0.7279
-0.2514 -0.5242 0.7049
-0.2596 -0.4445 0.8111
-0.2596 -0.5421 0.6988
-0.4328 -0.7562 1.2509
-0.2618 -0.5524 0.6831
-0.2666 -0.5593 0.6636
-0.2714 -0.5776 0.6537
-0.2819 -0.6024 0.6492
-0.2868 -0.5587 0.8035
0.3092 -0.8668 1.3490
0.1880 -0.4839 0.8289
0.1824 -0.4716 0.8341
-0.0324 -0.5542 1.0026
-0.0129 -0.4965 0.8747
-0.1458 -0.5483 0.9404
-0.1346 -0.4824 0.8315
-0.1919 -0.5486 0.9675
-0.1739 -0.4741 0.8205
-0.1932 -0.4691 0.8364
-0.1860 -0.4312 0.7602
-0.2459 -0.5152 0.9360
-0.2453 -0.5172 0.8898
-0.2299 -0.4537 0.8156
0.1222 -0.5228 0.5970
-0.2260 -0.5359 0.5783
-0.2537 -0.5418 0.6555
-0.2717 -0.5315 0.7854
-0.2492 -0.5312 0.6699
-0.2438 -0.4988 0.7825
-0.2385 -0.5575 0.7643
-0.2289 -0.5247 0.7486
0.1434 -0.5243 0.7716
0.1605 -0.6261 0.6562
0.1436 -0.4755 0.8407
0.2691 -1.0414 1.6440
0.1009 -0.5205 0.6451
0.1148 -0.5333 0.7972
0.1028 -0.4767 0.8435
0.1008 -0.5894 0.6805
0.1088 -0.7473 1.2878
0.1328 -0.8422 1.3950
0.0574 -0.5029 0.7450
0.0552 -0.5054 0.8947
-0.0056 -0.1194 0.3176
0.0487 -0.5868 0.8881
0.0410 -0.5210 0.6432
0.0595 -0.6151 0.7041
0.0306 -0.5818 0.6352
-0.2132 -0.4670 0.8330
0.0247 -0.5861 0.9149
0.0282 -0.5347 0.7768
-0.0151 -0.5496 0.7997
0.0131 -0.5438 0.7004
0.0135 -0.5560 0.6873
0.0619 -1.0033 1.7415
0.0144 -0.5115 0.9055
0.0147 -0.5212 0.8952
-0.2019 -0.5264 0.6634
0.0081 -0.5016 0.8814
-0.0112 -0.5056 0.7535
-0.0236 -0.6993 0.9510
-0.0096 -0.5436 0.7007
0.0088 -0.5949 0.7141
-0.0021 -0.5246 0.6227
-0.2247 -0.5272 0.8282
-0.0451 -0.5759 0.9891
-0.0297 -0.5043 0.8486
-0.0134 -0.5857 0.7334
-0.0259 -0.5437 0.6723
-0.0221 -0.5301 0.6292
-0.0139 -0.6218 0.6845
-0.0233 -0.5415 0.5915
-0.0330 -0.4965 0.8520
-0.0391 -0.4665 0.7204
-0.0333 -0.5368 0.7813
-0.0417 -0.0936 0.2463
-0.0486 -0.5409 0.7525
-0.0353 -0.6056 0.6994
-0.0626 -0.5217 0.7490
-0.0690 -0.5254 0.7340
-0.0701 -0.5321 0.7164
-0.0732 -0.5524 0.6604
-0.0761 -0.5599 0.7863
-0.0774 -0.5559 0.7581
-0.0946 -0.5437 0.6781
-0.1189 -0.6375 0.7539
-0.1017 -0.1194 0.3420
-0.0489 -0.0102 0.1639
-0.0980 -0.5426 0.7671
-0.1126 -0.5524 0.6574
-0.1870 -0.5521 0.6123
-0.2077 -0.5536 0.8148
-0.1569 -0.5776 0.9600
-0.1569 -0.5253 0.7113
-0.1572 -0.5248 0.6855
-0.1603 -0.5370 0.6731
-0.1587 -0.6152 0.6585
-0.1693 -0.5254 0.6299
-0.0494 -0.5113 0.9332
-0.2866 -0.5238 0.7766
0.0350 -0.6319 0.6653
-0.2079 -0.6132 0.6584
0.0962 -1.2375 1.2220
0.1879 -0.5065 0.6262
0.2072 -0.5487 0.6921
0.1920 -0.5001 0.7798
0.1926 -0.5087 0.7437
0.1943 -0.5782 0.6678
0.1721 -0.5521 0.6269
0.1917 -0.5691 0.6861
0.1674 -0.5300 0.7071
0.1884 -0.5574 0.7007
0.1630 -0.5155 0.7821
0.1723 -0.4993 0.8262
0.1640 -0.4744 0.8390
0.1671 -0.6497 1.0958
0.1231 -0.4758 0.8419
0.1022 -0.5247 0.8974
-0.0292 -0.1067 0.2058
-0.0481 0.0431 0.0804
-0.0181 -0.0171 0.1692
0.1265 -0.6344 0.6838
-0.0761 0.0024 0.1531
-0.0634 -0.0766 0.2065
-0.1187 -0.9354 1.5821
0.2058 -0.5340 0.7512
0.1657 -0.6440 0.7806
0.1229 -0.5104 0.6060
-0.3339 -0.9373 1.0229
0.1023 -0.5286 0.6281
0.0924 -0.6855 0.7608
0.0835 -0.5208 0.6418
0.0830 -0.6040 0.7215
-0.2041 -0.5531 0.6612
-0.1476 -0.7051 0.8858
-0.1980 -0.7977 0.8448
-0.0608 -0.6251 0.6638
-0.0269 -0.0761 0.1965
-0.0837 -0.0845 0.2626
-0.2410 -0.4956 0.8022
-0.2300 -0.4597 0.8004
0.1472 -0.4482 0.7848
0.1270 -0.4412 0.8194
-0.1421 -0.5411 0.7665
0.0283 -0.1441 0.2596
-0.0620 -0.0679 0.2655
-0.0232 -0.0415 0.1834
-0.0542 -0.0124 0.1835
-0.2319 -0.4602 0.7786
0.1427 -0.5633 0.7079
-0.0918 -0.7466 0.8933
-0.0239 -0.2750 0.4397
-0.0144 -0.1132 0.2700
-0.0422 0.0024 0.1340
0.0077 -0.5069 0.8644
-0.0134 -0.4748 0.8672
-0.0897 -0.4911 0.8558
-0.1003 -0.5523 0.7285
-0.0517 -0.1305 0.2384
-0.0440 -0.0209 0.1539
-0.0630 0.0175 0.1103
-0.0993 -0.0039 0.1548
-0.0472 0.0214 0.1011
-0.0733 0.0058 0.1163
-0.2804 -0.5612 0.8477
-0.1894 -0.5449 0.7496
-0.0652 -0.0186 0.1472
-0.0888 0.0306 0.1239
-0.0762 -0.0799 0.2050
-0.3798 -0.3013 1.1697
-0.0556 0.0316 0.1074
-0.0586 0.0298 0.0970
-0.0479 0.0267 0.0785
0.1286 -0.4951 0.8457
0.0016 -0.4587 0.8441
-0.0173 -0.4798 0.8286
-0.0949 -0.4652 0.8077
-0.0317 -0.0815 0.2325
-0.1117 -0.1003 0.3115
-0.0401 -0.1457 0.3089
-0.0740 -0.0278 0.1794
-0.0495 -0.0010 0.1432
-0.0435 0.0404 0.1515
-0.1338 -0.4805 0.8524
-0.1860 -0.5326 0.7569
-0.0684 0.0035 0.1481
-0.0451 0.0153 0.1167
-0.0697 -0.1005 0.3013
-0.0471 0.0513 0.0741
-0.0583 0.0050 0.1369
-0.0794 0.0576 0.0817

