-0.0328 -0.1049 0.0510
-0.0191 -0.0880 0.0331
0.0343 -0.0684 0.0067
0.0189 -0.0970 0.0369
-0.0351 -0.4257 0.1622
0.0236 -0.0449 0.0154
0.0541 -0.1735 0.0596
0.0727 -0.0111 0.0654
0.0837 -0.0242 0.0791
0.0035 -0.1759 0.2057
0.2837 -0.1487 0.3356
0.5717 -1.7160 0.3543
0.7445 -1.3163 0.4241
0.5612 -1.1751 1.0731
0.7140 -0.9998 1.3799
0.8301 -1.4965 0.4413
0.3634 -0.7093 1.0772
0.0543 -0.7606 0.8072
-0.0011 -0.9408 1.1585
-0.0048 -0.6191 0.7485
0.1061 -0.6555 0.8936
0.0736 -0.7814 1.0968
0.6545 -0.7622 0.9557
0.0815 -0.5111 0.5418
0.2329 -0.3000 0.0985
0.5146 -0.8308 2.1732
0.9292 -0.7056 2.0381
0.1509 -0.7925 2.2308
0.7247 -0.9659 2.0878
0.3122 -0.8165 0.6422
0.2830 -0.7699 0.6266
0.3564 -0.9057 0.9009
0.3335 -0.7186 0.9995
0.1834 -0.9234 0.9131
0.1344 -0.1224 0.1764
0.7700 -0.7634 2.1927
0.8998 -0.7749 2.0210
0.6866 -1.0529 1.4257
0.5846 -0.7202 0.8550
0.3990 -0.9218 0.9206
0.3563 -0.9899 1.4217
0.1009 -0.1466 0.0810
-0.4167 -0.8327 2.2780
0.5252 -1.9037 0.6689
0.0762 -0.0447 0.0507
0.6411 -0.8924 0.6028
0.6069 -0.8162 0.7288
0.0679 0.0228 0.0199
0.1139 -0.1245 0.0582
0.1237 -0.2419 0.0630
0.3554 -0.8271 1.0088
0.0707 0.0363 0.0414
0.4124 -0.8853 0.9604
-0.0411 -0.2004 0.7563
0.0770 0.0317 0.0120
0.0126 -0.0792 0.1497
-0.0861 -0.3611 0.2196
0.1683 -0.1560 0.1997
0.0776 0.0496 0.0178
0.0890 0.0460 0.0162
0.0957 -0.0132 0.0265
0.0751 -0.0363 0.0279
0.1433 0.0061 0.1208
0.0858 -0.0111 0.0260
0.1338 0.0349 0.0768
0.0565 0.0314 0.0087
0.0732 0.0236 0.0603
0.0375 -0.0103 0.0140
0.0763 0.0071 0.0179
0.1116 -0.0772 0.0347
0.0853 0.0394 0.0515
-0.2124 -0.7562 0.6501
0.5881 -0.7754 0.4954
0.6443 -0.8639 0.5513
0.5927 -0.7920 0.5209
0.5267 -1.5040 0.2859
0.1352 -0.0602 0.2099
-0.1178 -0.6468 0.9207
0.4232 -0.7591 1.0345
-0.0994 -0.6350 0.9314
0.2999 -0.7146 0.5668
0.2661 -0.7020 0.7102
0.0447 -0.6805 0.6856
0.3630 -0.7174 0.7594
0.4838 -0.6474 0.8179
0.3788 -0.7366 0.8338
0.2696 -0.7036 0.9194
0.1394 -0.7133 0.9845
0.3807 -0.7276 0.7719
0.3276 -0.7262 0.6097
0.3784 -0.7547 0.8187
0.3308 -0.7244 0.7076
0.1633 -0.6882 1.0833
0.0723 -0.8080 0.8319
-0.1320 -0.7185 0.8145
0.2993 -0.6840 0.7079
0.3214 -0.6468 0.9331
-0.1976 -0.7310 0.6346
0.1549 -1.3995 0.3483
0.4032 -0.7394 0.9640
0.3948 -0.7456 1.0040
0.3615 -0.7497 0.9671
0.2007 -0.6312 0.8150
0.1597 -0.7245 1.0803
0.1499 -0.7275 1.1692
0.1217 -0.7437 0.9182
0.1186 -0.7179 0.9932
0.1615 -0.7367 1.0496
0.0948 -0.7129 0.9189
0.5161 -0.7715 0.9052
-0.5038 -1.2148 0.2386
-0.3201 -1.4472 0.3464
0.1411 -0.7998 1.0129
-0.4892 -1.3534 0.3039
-0.1984 -0.7027 0.6097
0.4803 -0.7951 0.9399
-0.3325 -1.5376 0.1977
-0.5117 -0.7266 1.5943
-0.1235 -0.7268 1.0500
-0.8149 -0.8806 1.1856
0.0896 -0.7023 0.7415
-0.6988 -1.5381 0.4571
-0.9013 -0.8610 1.2831
-0.8840 -0.8503 1.2176
-0.8938 -0.9061 1.3094
-0.8635 -0.8512 1.2222
-0.7541 -0.7130 1.1160
-0.3788 -1.3568 0.2821
-0.0432 -0.7049 0.9536
-0.9191 -0.9813 1.4418
-0.9257 -0.7210 1.3045
-0.7146 -1.3757 0.1625
0.0448 -0.6837 0.6921
-0.9494 -0.7044 1.4052
-0.8310 -0.8611 1.3256
-0.3073 -1.3536 0.3004
-0.3912 -0.6736 0.7194
-0.2621 -1.4479 0.1789
-0.4817 -1.3061 0.2975
0.1217 -0.6492 1.0455
0.0380 -0.6623 0.6722
-0.0250 -1.5186 0.2793
-0.0716 -1.5575 0.5091
0.1611 -0.6758 1.0650
-0.0373 -0.7059 0.9527
-0.2190 -1.5212 0.2822
0.0478 -0.5909 0.6450
-0.1491 -0.7314 0.8959
-0.1875 -0.6966 0.6117
-0.0500 -1.1571 2.6044
0.4942 -1.3700 3.0213
0.4307 -1.3882 0.2697
0.1522 -0.6817 1.0239
0.0176 -0.6895 0.9268
-0.4512 -1.9788 0.4280
-0.4277 -1.5157 0.3013
-0.0276 -1.4567 0.2108
0.0922 -0.7427 0.9523
-0.1286 -0.6828 0.9091
0.3865 -0.6771 0.9403
0.2661 -0.5772 0.6157
-0.1869 -0.6740 0.5883
0.3813 -0.7278 0.7727
0.3199 -0.7190 0.6955
0.4441 -0.7169 0.6596
0.4110 -0.6488 0.7916
0.4567 -0.7970 0.8290
0.3359 -0.6778 0.6734
0.3685 -0.6553 0.8695
0.1376 -0.6630 0.9261
0.6596 -0.7221 1.0330
0.2053 -0.6915 0.7093
0.3271 -0.6969 0.6410
0.4062 -0.6286 0.5929
0.5340 -0.6864 0.4483
0.3464 -0.7016 0.9164
0.1181 -0.6848 0.9501
0.3314 -0.6729 0.6744
0.1151 -0.6529 0.8935
0.3710 -0.6670 0.8511
0.3433 -0.6600 0.7977
0.0945 -0.6772 0.7181
-0.1220 -0.6586 0.9353
0.4586 -0.6656 0.8024
0.2142 -0.6605 0.6995
0.5117 -0.6599 0.4444
0.0489 -0.6549 0.5705
0.6238 -0.6541 0.9613
0.3883 -0.6395 0.9608
0.1388 -0.6393 0.9894
0.1038 -0.6729 0.8565
0.6114 -0.6813 0.7965
0.2093 -0.6582 0.8460
-0.1576 -1.4044 0.3016
0.3572 -0.7175 0.7347
0.1263 -0.6066 0.8126
0.0434 -0.6879 0.8315
-0.1156 -0.6747 0.9698
0.6117 -0.6685 0.8064
0.6229 -0.6895 0.8103
0.3504 -0.6668 0.7679
0.6112 -0.6633 0.8067
0.5164 -0.7455 0.6769
0.0899 -1.3351 0.2440
0.1393 -0.6683 0.9303
0.1159 -0.6771 0.8464
-0.0975 -0.6334 0.9287
0.0949 -0.6775 0.8747
-0.0589 -0.5495 0.8376
0.6204 -0.6655 0.9646
0.3575 -0.7011 0.7442
0.3298 -0.6568 0.6584
0.3463 -0.6742 0.7438
0.2978 -0.6552 0.5803
0.3849 -0.6716 0.9295
0.1634 -0.6672 1.0531
0.0148 -0.6520 0.7154
0.5370 -0.6885 0.4400
0.1139 -0.6280 0.8029
0.3568 -0.6548 0.8346
0.3631 -0.6767 0.7286
-0.1633 -1.4659 0.2085
0.3211 -1.4652 0.1327
0.1356 -0.6825 1.0940
0.5858 -0.6683 0.8080
0.3132 -0.6551 0.5899
0.3095 -0.6647 0.5691
0.3195 -0.6776 0.6713
0.0509 -0.6802 0.5446
0.0422 -0.6778 0.5395
0.5688 -0.6566 0.6195
0.5508 -0.6648 0.5479
0.2961 -0.6820 0.5441
0.3091 -0.6835 0.6692
0.0564 -0.6424 0.7859
0.4308 -1.3736 0.2771
0.3742 -0.6650 0.8428
0.3780 -0.6456 1.0018
0.1487 -0.6641 0.9920
0.1163 -0.6710 0.9134
0.3034 -0.6678 0.5382
0.0683 -0.6779 0.6327
0.3001 -0.6791 0.5310
0.5316 -0.6840 0.4441
0.5514 -0.6707 0.5520
0.4157 -0.6860 0.6616
0.2576 -0.6598 0.6760
0.2541 -0.6772 0.7090
0.2606 -0.6544 0.8662
0.0748 -0.7145 0.7462
0.5792 -0.6839 0.6234
-0.0845 -0.6290 0.9407
0.1357 -0.6811 0.9890
0.5986 -0.6610 0.9423
0.0955 -0.6363 0.6876
0.5332 -0.6446 0.5162
0.3365 -0.6571 0.7533
0.3605 -0.6547 0.9012
0.0772 -0.6720 0.6124
0.6012 -0.6999 0.6481
0.3491 -0.6681 0.7966
0.3578 -0.6609 0.7918
0.3607 -0.7476 0.6256
0.5617 -0.6878 0.5629
0.5229 -0.6784 0.4536
0.5217 -0.6670 0.4398
0.3408 -0.6947 0.6840
0.2576 -0.6632 0.6778
0.3514 -0.6881 0.8243
0.1390 -0.6281 0.9755
0.4195 -0.7023 0.9726
0.3922 -0.6486 0.9714
0.1680 -0.6834 0.8960
0.1164 -0.6769 0.8442
0.1198 -0.6583 0.9213
0.0996 -0.6795 0.8122
0.4791 -0.6908 0.5687
0.3135 -0.6541 0.5900
-0.0302 -0.6188 0.7191
0.6348 -0.6690 0.9776
-0.0766 -0.6663 1.1191
0.3581 -0.7209 0.7360
0.6040 -0.6638 0.7864
0.3179 -0.6956 0.5876
-0.1504 -0.7161 0.8695
-0.1067 -0.6642 0.9643
0.2988 -0.6630 0.5829
0.6000 -0.6440 0.9352
-0.1685 -0.6324 0.5576
0.5115 -0.6489 0.4298
-0.1576 -0.6225 0.5569

