-0.0752 -0.1614 0.0615
-0.0212 -0.0380 0.0334
0.0234 -0.0551 0.0020
0.0363 -0.0509 0.0468
-0.0268 -0.0409 0.0333
-0.0057 -0.0200 0.0219
-0.0024 -0.0204 0.0263
0.0080 -0.0019 0.0115
0.0392 -0.0597 0.0572
0.0109 -0.0070 0.0092
0.0675 -0.0389 -0.0339
-0.1965 -0.5026 -0.3130
-0.2701 -0.9066 -0.5125
-0.1709 -0.8668 -1.8690
-0.1947 -0.9219 -1.7213
-0.0799 -1.0013 -1.5556
0.0629 -0.9458 -1.7808
-0.0073 -0.9125 -1.3219
-0.1455 -0.7569 -0.4986
-0.0305 -0.6988 -0.9400
-0.2577 -1.0362 -1.7823
-0.4389 -0.9228 -1.1477
-0.5341 -0.8027 -0.8396
-0.4887 -0.9171 -0.5790
-0.4379 -0.8915 -0.5313
-0.3150 -0.7696 -0.5361
0.1010 -0.6605 -1.1042
0.1170 -0.6979 -1.0975
0.1284 -0.7769 -1.8307
0.1591 -0.7771 -1.8620
-0.7097 -1.0082 -0.7733
-0.1019 -0.7971 -0.5192
-0.6150 -0.9448 -1.4613
-0.4579 -0.8877 -1.7652
-0.7185 -0.9241 -0.9967
-0.3680 -0.7017 -1.8500
-0.4140 -0.9059 -1.8282
-0.3803 -0.9339 -1.7871
-0.3446 -0.6832 -1.7586
-0.1939 -0.5881 -1.8817
-0.2580 -0.8161 -1.7638
-0.4616 -0.9438 -1.1859
-0.4853 -0.9639 -1.1409
-0.3362 -0.9033 -1.3978
-0.0046 -0.9443 -1.9419
-0.4970 -0.9289 -0.8142
0.1641 -0.9102 -2.1363
-0.1407 -0.8913 -1.5143
0.0840 -0.5905 -1.8393
-0.4988 -0.9511 -0.5675
0.1867 -0.7367 -1.8930
-0.3691 -0.9488 -0.5226
-0.1318 -0.9119 -0.8734
-0.2314 -0.9035 -0.6970
-0.2629 -0.8866 -0.5499
-0.2868 -0.7880 -0.5281
-0.0905 -0.4292 -1.2457
0.0138 -0.5707 -1.3897
-0.7680 -0.9181 -0.9420
-0.6059 -0.8708 -1.3366
-0.4253 -0.9562 -1.7770
-0.5474 -1.0215 -1.4560
-0.3067 -0.4195 -1.6233
-0.6961 -0.8970 -0.8228
-0.4439 -0.8992 -1.3552
-0.6014 -0.9252 -0.9563
-0.4047 -0.9055 -1.4394
-0.3733 -0.9325 -1.3075
-0.5319 -0.9730 -0.7027
0.0389 -0.6740 -1.6406
0.0572 -0.4329 -1.4460
-0.6579 -0.9522 -1.0268
-0.5286 -0.9962 -0.9416
-0.3500 -0.8745 -0.5432
-0.8646 -0.9931 -1.8265
-0.8086 -0.9320 -1.7942
-0.7832 -0.8879 -1.6945
-0.7952 -0.9268 -1.5887
-0.9053 -0.9503 -0.8660
-0.6401 -0.9522 -1.5225
-0.6968 -0.9124 -1.0920
-0.0326 -0.9645 -0.8780
-0.0237 -0.9801 -0.9139
-0.1760 -0.8234 -0.7516
-0.5460 -0.8120 -1.0082
-0.3242 -0.8577 -0.5099
-0.2003 -0.8975 -0.7623
-0.2829 -1.0521 -1.7644
-0.3404 -0.8995 -1.4920
-0.2465 -0.9069 -1.7462
-0.2067 -1.0179 -0.8072
-0.2284 -0.8051 -1.7744
-0.1740 -0.6214 -1.6986
-0.1249 -0.8318 -1.7647
-0.4642 -0.7992 -0.8666
-0.3946 -0.8919 -0.6287
-0.1122 -0.9198 -1.2379
0.1437 -0.7223 -1.8350
-0.1058 -0.9331 -1.2992
-0.1217 -0.6231 -1.6024
-0.4513 -0.9196 -0.6244
-0.4518 -0.8908 -0.7448
-0.4294 -0.9965 -0.7092
-0.1130 -0.8487 -1.5073
-0.8397 -0.9600 -1.6153
-0.7591 -0.9115 -1.7457
-0.3153 -0.9774 -1.0158
-0.7453 -0.7824 -1.5432
-0.9166 -0.9900 -0.9277
-0.8394 -0.9978 -1.1711
-0.5941 -0.9851 -1.0670
-0.4084 -0.8130 -0.7446
-0.8154 -0.9613 -1.2423
-0.8570 -0.9417 -0.8237
-0.4136 -0.9267 -0.7424
-0.5878 -0.9871 -1.0171
-0.9471 -0.8868 -1.1707
-0.9228 -0.8311 -0.8643
-0.8333 -0.6952 -0.6301
-0.7632 -1.0057 -1.0338
-0.6605 -0.7459 -1.0993
-0.4586 -0.9603 -1.9993
-0.3571 -0.2870 -1.6915
-0.6296 -0.6801 -0.6945
-0.2775 -0.8128 -1.7534
-0.1619 -0.8263 -1.6501
-0.2199 -0.8955 -1.3269
0.1134 -0.8631 -2.0019
-0.0240 -0.6824 -1.5423
-0.0557 -0.6467 -1.3927
0.0203 -0.6148 -1.4448
0.0084 -0.9117 -0.9269
-0.9231 -0.9134 -0.9468
-0.4388 -0.7855 -2.2265
-0.3308 -1.0216 -2.6799
-0.6130 -0.8027 -0.9146
-0.2996 -0.2497 -1.6203
-0.3339 -0.8463 -1.6279
-0.2440 -0.9421 -1.8520
0.0034 -0.8170 -1.8967
-0.5141 -1.0092 -2.6213
-0.4394 -0.7986 -2.8063
-0.3737 -0.8964 -2.3321
-0.3269 -0.7790 -0.5206
-0.8612 -0.9613 -0.7741
-0.1463 -0.5545 -1.4195
-0.1244 -0.8115 -1.4203
0.0091 -0.7770 -1.7607
-1.0534 -0.9835 -1.1074
-0.0678 -0.7794 -1.8346
-0.6054 0.0568 -0.5740
-0.6006 -0.9348 -1.2743
-1.0181 -0.9849 -1.1619
-0.2199 -0.8896 -0.7064
-0.9904 -0.9351 -0.8235
-0.9686 -0.9827 -0.9674
-0.8753 -0.9303 -1.1390
-0.7006 -0.7766 -1.2077
-0.3148 -0.9476 -1.6659
-0.1099 -0.7336 -1.6377
-0.1400 -0.8792 -1.0516
0.1379 0.0798 -0.6953
0.8092 -0.1083 -0.6774
0.7222 -0.1089 -0.8924
-0.1850 -0.1282 -0.3288
-0.1335 -0.7204 -0.2047
-0.1646 -0.4028 -0.7226
-0.4399 -0.8854 -0.4922
-0.1809 -0.3486 -0.6793
-0.5501 -1.1263 -0.5429
-0.4464 -0.8397 -0.5356
-0.0540 -0.4754 -1.0931
-0.1957 -0.2304 -0.6550
-0.7620 -1.0456 -0.7281
-0.0135 -0.6580 -1.7617
-0.4560 -1.0382 -1.1232
-0.5470 -0.8942 -0.5121
-0.5070 -0.9307 -0.4892
0.0023 -1.0585 -1.2518
-0.3362 -0.9962 -0.5812
-0.2373 -1.0149 -0.5463
-0.1566 -0.6633 -0.4772
-0.3708 -0.3500 -1.7757
-0.4928 -0.9789 -0.6174
-0.4313 -0.8557 -0.6339
-0.2581 -0.8124 -0.9444
-0.0437 -0.3596 -1.3075
0.1367 -0.4909 -1.1537
0.1306 -0.5224 -1.1299
-0.2413 -0.1940 -0.6434
-0.1782 -0.4303 -0.6529
-0.6459 -0.7898 -0.6659
-0.4617 -0.8931 -0.8786
-0.0965 0.0120 -1.0558
-0.3199 -0.8113 -0.4740
0.0974 -0.4062 -1.1169
-0.6160 0.0254 -1.1859
-0.5406 -0.9527 -3.0430
-0.5302 -1.0197 -2.8772
-0.2755 -0.6632 -0.5713
-0.6961 -0.9885 -2.7399
-0.1587 -0.9729 -0.8089
-1.0965 -0.9045 -0.8799
-1.0732 -0.8364 -0.8020
-1.0362 -0.8983 -1.0520
-0.7953 -0.9432 -1.2636
-0.6745 -0.9948 -1.5451
-0.6652 -0.9473 -1.4111
-0.9561 -0.7931 -1.0186
-0.2203 -0.8906 -0.9960
-1.1470 -1.0008 -0.9610
-1.0237 -0.8801 -0.8388
-0.8056 -0.9559 -0.9234
-1.0363 -0.8593 -0.9250
-1.0409 -0.9725 -1.2884
-1.0655 -0.9796 -1.7868
-0.5364 -0.9702 -1.9949
-0.6889 -0.9276 -1.2967
-1.1449 -0.9939 -1.5705
-0.1047 -0.6946 -1.8276
-1.0221 -0.8968 -0.6361
-1.0497 -0.9255 -0.6640
-1.0047 -0.9218 -0.6120
-0.7647 -0.7418 -0.5319
-0.6389 -0.8453 -0.9252
-1.1270 -0.8180 -0.8904
-0.8593 -0.8020 -0.7894
-0.7068 -0.7291 -0.7426
-0.7174 -0.8797 -0.7075
-0.5804 -0.8980 -0.9488
-0.2419 0.1429 -0.6267
-0.1348 -0.7320 -0.4317
-0.6276 -0.8759 -0.6534
-0.4624 -0.8406 -0.7859
-0.3377 -0.9300 -0.5056
-0.2288 0.0386 -1.1490
-1.1182 -1.0268 -1.7468
-0.4759 -0.9006 -0.7260
-0.3749 -0.9268 -2.2993
-0.6926 -0.9358 -1.4183
-1.0727 -0.9689 -1.1915
-1.0155 -0.8798 -1.0104
-0.7294 -0.9640 -2.2173
-1.1257 -0.9389 -0.8838
-1.0262 -0.9790 -1.1570
-0.1180 -0.9317 -0.9037
-0.6103 -0.9263 -1.0881
-0.6331 -0.9327 -1.0182
-0.9150 -0.9057 -1.1954
-0.8331 -0.8671 -1.1813
-0.4306 -1.0324 -1.0369
-0.8759 -0.3959 -0.5247
-0.3241 -0.9320 -0.5093
-0.1571 -0.2894 -0.2943
-0.8930 -0.8795 -0.6668
-0.4764 -0.9151 -1.0779
-0.4142 -0.9399 -1.6328
-1.2348 -0.9696 -1.3048
-0.1637 -0.8834 -0.7634
-0.8505 -0.3162 -0.5520
-0.6516 -0.9251 -0.8859
-0.7997 0.0452 -0.6005
-0.5747 0.1028 -0.6037
-0.0017 -0.6058 -1.6732
-0.3186 -0.9661 -0.4766
-0.2742 -0.5694 -0.5024
-0.0603 -0.9687 -0.7845
-0.2939 -0.7248 -1.9096
-0.2861 -0.6476 -1.9061
-0.8783 -0.9374 -0.8699
-0.6859 0.2382 -0.5705
-0.7306 0.2212 -0.6407
-0.0078 -0.7992 -1.9252
-0.0106 -0.9754 -0.8563
-0.2487 -0.9582 -0.7493
-0.5994 -1.0397 -1.1702
-0.8620 -0.9370 -0.6128
-1.0733 -0.8544 -0.7335
-0.4565 -0.9591 -1.7316
-0.7714 -0.9346 -1.4505
-0.1814 -0.8911 -0.7739
-0.5151 -0.9044 -1.0788
-0.5309 -0.9361 -1.4020
-0.1400 -0.9224 -0.7669
-0.4605 -0.9493 -1.4055
-0.4631 -0.9259 -1.1761
-0.6025 -0.8883 -0.9741
-0.7799 -0.9400 -1.8065
-0.8166 -0.9142 -0.9598
-0.4996 -0.9230 -0.5252
-0.7124 0.2623 -0.6374
-1.0050 -0.9082 -1.5168
-0.4629 -0.9073 -1.3048
-0.5094 -1.0109 -0.9435
-0.5771 -0.9257 -0.9452
-0.6153 -0.9388 -1.5155
-0.5344 -0.9269 -1.0908
-0.7017 -0.9070 -1.0422
-0.8083 -0.5048 -0.7893
-0.5638 -0.8674 -1.1170
-0.8454 -0.9328 -0.7767
-1.1751 -0.8989 -0.9666
-0.8079 -0.9711 -0.8838
-0.8545 -0.8749 -1.5224
-0.7443 -0.9031 -1.5407
-0.4491 -0.8854 -1.0643
-0.1440 -0.9425 -0.7648
-0.5139 -0.1231 -0.6063
-1.3251 -0.9684 -1.3034
-1.2174 -0.9374 -1.1421
-0.9818 -0.9720 -1.6828
-0.9863 -0.9276 -0.4697
-1.1904 -0.9136 -1.0176
-1.2225 -0.9031 -1.0236
-1.3363 -0.9183 -0.9752
-1.6630 -0.9914 -1.6950
-1.0038 -0.8679 -1.0607
-0.9678 -0.9060 -0.9504
-1.3531 -0.9332 -1.4144
-1.2483 -0.9144 -0.6600
-1.1482 -0.9854 -0.7558
-1.0814 -0.9397 -0.8579
-1.3015 -0.9299 -0.8688
-0.7117 -0.9349 -1.0047
-1.5701 -0.9456 -1.5628
-1.1898 -0.9049 -1.3691
-1.1695 -1.0035 -1.8800
-1.0889 -0.9498 -1.7620
-0.7657 -0.8807 -1.2038
-1.3310 -0.9089 -0.9060
-0.9714 -0.9245 -0.3209
-0.8884 -0.9300 -0.4745
-0.7760 -0.9193 -1.5851
-0.4935 -1.0514 -0.4877
-0.5449 -0.9005 -0.4948
-0.8673 -0.9191 -0.8688
-0.9798 -0.9163 -1.0724
-0.9934 -0.9336 -1.0339
-1.0989 -0.9337 -1.0298
-1.3694 -1.0420 -1.1675
-1.0449 -0.9400 -0.6819
-1.1092 -0.8911 -0.7671
-1.0234 -0.9298 -0.6204
-0.5294 -0.8856 -0.4014
-0.4910 -0.9587 -0.5730
-0.4465 -0.9159 -0.6174
-0.6217 -0.9137 -1.0133
-0.4448 -0.9125 -0.6363
-0.6208 -0.8871 -1.0376
-0.4296 -0.9230 -0.6303
-1.1287 -0.9798 -0.5784
-1.5389 -0.9004 -1.2491
-0.6688 -0.8898 -1.3858
-0.9850 -0.9193 -0.4035
-1.2612 -0.9735 -1.4668
-0.6805 -0.9088 -0.7577
-1.2471 -0.9642 -0.6362
-0.8976 -0.9638 -0.6893
-1.0257 -0.9389 -0.5681
-0.6782 -0.9394 -1.2769
-0.4184 -0.9458 -0.5477
-1.7240 -0.7455 -1.4212
-0.4808 -0.9181 -0.5843
-1.6472 -0.9222 -1.2493
-1.6998 -0.8039 -1.4576
-1.3539 -0.9031 -0.9816
-1.5664 -0.9212 -1.4902
-0.9722 -0.9184 -0.6610
-1.2044 -0.9247 -1.3163
-1.2914 -0.9412 -1.5441
-0.7120 -0.8908 -0.7166
-0.9863 -0.9719 -1.2769
-0.7108 -0.9169 -0.7914
-0.8105 -0.9238 -1.0975
-0.6241 -0.9162 -0.8874
-0.8196 -0.9206 -1.7586
-0.5715 -0.8801 -1.2789
-0.8294 -0.8975 -1.1950
-0.6210 -0.9417 -1.0300
-1.8367 -0.9642 -1.5077
-1.3613 -0.9054 -1.7933
-1.0411 -0.9056 -0.7148
-1.2539 -0.9448 -0.6001
-1.7650 -0.9028 -1.2498
-1.2041 -0.9321 -0.6123
-1.3544 -0.9310 -0.8255
-1.0198 -0.9265 -0.5095
-1.4076 -0.9045 -1.0746
-1.2875 -1.0103 -0.9334
-1.0811 -0.9169 -0.7335
-1.0454 -0.9214 -0.8267
-0.8830 -0.9450 -0.8973
-1.0268 -0.9229 -0.8547
-1.0971 -0.9166 -1.0589
-0.5823 -0.9509 -1.1698
-0.4016 -0.9386 -0.5350
-1.8839 -0.9249 -1.2552
-1.4548 -0.9250 -0.9010
-1.3414 -0.9072 -1.0688
-1.4168 -0.9078 -1.3169
-1.2405 -0.9356 -1.3194
-0.8809 -0.9415 -0.7611
-0.7391 -0.8850 -0.5855
-1.2801 -0.8535 -1.7239
-1.0930 -1.0265 -1.6097
-0.7173 -0.9566 -1.1462
-0.7275 -0.9171 -1.2320
-0.6114 -0.9187 -1.1237
-0.3941 -0.9391 -0.9958
-1.9584 -0.8315 -1.1602
-1.8872 -0.8713 -1.2097
-0.6814 -0.9337 -1.1031
-1.0392 -0.9290 -0.3921
-1.8769 -0.8594 -1.2351
-1.8857 -0.9017 -1.2787
-0.4987 -0.8726 -0.4861
-1.6356 -0.9738 -1.1038
-1.0032 -0.9014 -0.5247
-0.8222 -0.9157 -0.3431
-1.5940 -0.9196 -1.6450
-0.9114 -0.9097 -0.4433
-1.1265 -0.9442 -0.9722
-1.4559 -0.9335 -1.2131
-1.2215 -0.9000 -0.8790
-1.1302 -0.9118 -0.7866
-1.1633 -0.9247 -0.7985
-1.1330 -0.9354 -0.8519
-1.4490 -0.9416 -0.6195
-1.4578 -0.9247 -0.6883
-1.6667 -0.9222 -1.1620
-1.5264 -0.9564 -1.4027
-1.4532 -0.8092 -1.4004
-1.2946 -0.8983 -1.2562
-0.9302 -0.8792 -1.1803
-0.6232 -0.9073 -0.7923
-1.2517 -0.8004 -1.7739
-1.9269 -0.7006 -0.8543
-2.0419 -0.8774 -0.8873
-0.7913 -0.9325 -0.9230
-1.0082 -0.8993 -1.1195
-1.3930 -0.9253 -1.4360
-1.0186 -0.9019 -1.0743
-1.0385 -0.9229 -1.0098
-0.6152 -0.9621 -1.0316
-1.3047 -0.9114 -1.1014
-1.2360 -0.9342 -1.0334
-1.7766 -0.9177 -1.4915
-1.7779 -0.9195 -1.4466
-1.2873 -0.9026 -1.1744
-1.2291 -0.9375 -0.5871
-1.0053 -0.8961 -1.2442
-1.0087 -0.9333 -1.3150
-1.3964 -0.9743 -1.3946
-0.9338 -0.9258 -0.3036
-1.0228 -0.9106 -0.3707
-1.6469 -0.9132 -0.8982
-1.4185 -0.9234 -1.0177
-0.7733 -0.8524 -0.5761
-1.2347 -0.8977 -1.4040
-1.1322 -0.8409 -1.3759
-0.2876 -0.8539 -0.7640
-1.1650 -0.9232 -0.2406
-2.0020 -0.9444 -0.8021
-1.9116 -0.9188 -0.7884
-0.8917 -0.9167 -0.5287
-0.9108 -0.9208 -0.3417
-1.3971 -0.9252 -1.0784
-1.5793 -0.9092 -1.6680
-0.8603 -0.9385 -0.3746
-1.0387 -0.9149 -0.4836
-0.4965 -0.9428 -0.6390
-1.0568 -0.9055 -0.9867
-0.9591 -0.8666 -0.9741
-1.4180 -0.9371 -0.4133
-1.2402 -0.9125 -0.5399
-1.6202 -0.9157 -1.6658
-1.0471 -0.8999 -0.9415
-1.3154 -0.9037 -0.9906
-1.5940 -0.9544 -0.9185
-1.1135 -0.9108 -1.3289
-1.2011 -0.9204 -0.4300
-1.4494 -0.9550 -1.4174
-1.4214 -0.9346 -1.1383
-0.9155 -0.9215 -0.6796
-1.5572 -0.9061 -1.6029
-1.4617 -0.8936 -0.4841
-1.2340 -0.9304 -0.9890
-1.9004 -0.9275 -0.7429
-1.9207 -0.9516 -0.8377
-1.7420 -0.9491 -1.5869
-1.0134 -0.9163 -1.0321
-1.2888 -0.9469 -1.5450
-1.9391 -0.8682 -0.9340
-0.9862 -0.8330 -1.2533
-1.1353 -0.8877 -0.2202
-0.5984 -0.9115 -0.9827
-0.5992 -0.8949 -0.9186
-1.1880 -0.9409 -0.2166
-1.0526 -0.8856 -1.1794
-1.4325 -0.9192 -1.4362
-1.6403 -0.8804 -1.5533
-1.1091 -0.9239 -0.6327
-1.1241 -0.9509 -0.3693
-1.4490 -0.9195 -0.8897
-1.1805 -0.9158 -0.8729
-1.5356 -0.9806 -0.3137
-0.9385 -0.6498 -0.2004
-0.8905 -0.7290 -0.1705
-1.6256 -0.9633 -0.6285
-0.9600 -0.8824 -0.2962
-1.5521 -0.8979 -1.0069
-1.0659 -0.9239 -0.9939
-1.2999 -0.9323 -1.2928
-0.9377 -0.9216 -1.1994
-0.5384 -0.8498 -0.8233
-1.3484 -0.9056 -0.9842
-1.0517 -0.8199 -1.5003
-0.8656 -0.9570 -0.9757
-0.9799 -0.9008 -1.0171
-1.5830 -0.9537 -1.4418
-1.1371 -0.8914 -0.2382
-1.3051 -0.9013 -1.0921
-1.3001 -0.9079 -1.0075
-1.3236 -0.9180 -1.0291
-1.0580 -0.8641 -0.6669
-0.9128 -0.7922 -0.2269
-1.4983 -0.8809 -1.1054
-1.4971 -0.9140 -1.1569
-1.0948 -0.9208 -0.2442
-1.0953 -0.9067 -0.9332
-1.2291 -0.9145 -1.0246
-0.8673 -0.9434 -0.8309
-1.7606 -0.8924 -1.4626
-0.9676 -0.9414 -0.9655
-1.5626 -0.9322 -1.4552
-1.4527 -0.9303 -1.5190
-1.3756 -0.9307 -1.4862
-1.8069 -0.9369 -1.6510
-0.7807 -0.9839 -0.9418
-1.4314 -0.9124 -1.0504
-1.0327 -0.9243 -0.4302
-1.2404 -0.9174 -0.3023
-1.3129 -0.9496 -1.0799
-0.9304 -0.9285 -0.7668
-1.1889 -0.9661 -0.6069
-1.0594 -0.9356 -1.0885
-1.2208 -0.9355 -0.7753
-1.2399 -0.9356 -0.3421
-0.6054 -0.9264 -0.9689
-1.4760 -0.9223 -1.2020
-1.7401 -0.9396 -1.4641
-1.2618 -0.9332 -0.4820
-1.3962 -0.9145 -0.6259
-0.9756 -0.8908 -0.5045
-1.6090 -0.9199 -0.9734
-0.9744 -0.9123 -0.6612
-1.2548 -0.8950 -0.9757
-1.4556 -0.9101 -1.1903
-0.8114 -0.9445 -0.9710
-0.7639 -0.9300 -0.9460
-1.0663 -1.0069 -0.4833
-1.6627 -0.9082 -1.5837
-1.3749 -0.9437 -0.2167
-1.6035 -0.9600 -1.5764
-1.9855 -0.9599 -1.7382
-1.1190 -0.9498 -0.8938
-1.0411 -0.9013 -0.8198
-1.8551 -0.9535 -1.2895
-1.9814 -0.9257 -1.3337
-1.9405 -0.9015 -1.2904
-1.9662 -0.9627 -1.2783
-2.0567 -0.9700 -1.2154
-1.1088 -0.8930 -0.5740
-1.0376 -0.9192 -0.5144
-2.0335 -0.9204 -0.9082
-1.0725 -0.9482 -1.2045
-1.2948 -0.9113 -1.2302
-1.4140 -0.9112 -0.4387
-1.4479 -0.9314 -1.2643
-1.3503 -0.9214 -0.7772
-1.4771 -0.9533 -1.3810
-1.3338 -0.9544 -0.6906
-1.3596 -0.9488 -0.9728
-2.0418 -0.9398 -1.1605
-1.5411 -0.9815 -0.7227
-1.6759 -0.9371 -1.1796
-0.9346 -0.9221 -0.9028
-0.7409 -0.9236 -0.8631
-1.0115 -0.9396 -1.1381
-1.4034 -0.9184 -0.4984
-1.1169 -0.9362 -0.9395
-0.8946 -0.9054 -0.3375
-2.0559 -0.9098 -0.8973
-1.1802 -0.9336 -0.8862
-1.0559 -0.9304 -0.4991
-0.9828 -0.9393 -0.4687
-1.7908 -0.8933 -1.1119
-0.8933 -0.9074 -0.4921
-1.1325 -0.9092 -0.7346
-1.7071 -0.9011 -0.6920
-1.4631 -0.9480 -0.2083
-1.1590 -0.9272 -0.2199
-1.0278 -0.8942 -0.3731
-1.4505 -0.9269 -0.8997
-0.8718 -0.9186 -0.7278
-0.5180 -0.8723 -0.4493
-2.0756 -0.7596 -1.1537
-1.9000 -0.9013 -0.7846
-1.0600 -0.9166 -0.2563
-1.1694 -0.8684 -0.1969
-1.4184 -0.9466 -0.4155
-1.3407 -0.9357 -1.0194
-1.1607 -0.9595 -0.8915
-0.9649 -0.9690 -0.3028
-1.1141 -0.8691 -0.8034
-1.1224 -0.9198 -0.4107
-0.9742 -0.8961 -0.3728
-1.5946 -0.8958 -1.0521
-1.4981 -0.9226 -0.6955
-1.2025 -0.9161 -0.6086
-1.0011 -0.9562 -0.5291
-1.0086 -1.0105 -0.6327
-1.5376 -0.9195 -0.6069
-1.1367 -0.9402 -0.6771
-1.5672 -0.9730 -0.5641
-1.6108 -0.9435 -0.6219
-1.5545 -0.9385 -0.6143
-1.2267 -0.8932 -0.5015
-1.7448 -0.9405 -0.8565
-1.9912 -0.7455 -1.1352
-1.3338 -0.9261 -0.0203
-1.0058 -0.9638 -0.2970
-1.1469 -0.9564 -0.3156
-1.1273 -0.9646 -0.2715
-1.7328 -0.9007 -0.0895
-1.7275 -0.9718 -0.4838
-1.4160 -0.9363 -0.4695
-1.4024 -0.9222 -0.1667
-1.4353 -0.9167 -0.1935
-1.5200 -0.9626 0.0335
-1.3731 -0.9174 -0.0553
-1.1684 -0.9751 -0.6031
-1.2610 -0.9649 -0.7034
-1.6340 -0.9498 -0.7631
-1.7784 -0.9567 -0.1423
-1.5186 -0.9350 -0.0173
-1.3849 -0.9397 -0.1287
-1.2585 -0.9465 -0.2227
-1.3997 -0.9540 -0.5701
-1.4067 -0.9552 -0.6395
-1.4520 -0.9100 -0.8498
-1.3205 -0.9442 0.1088
-1.2656 -0.9192 0.1334
-1.2821 -0.9190 0.1198
-1.7453 -0.9340 0.0074
-1.6822 -0.9265 -0.0809
-1.3285 -0.9144 -0.6759
-1.7642 -0.9279 -0.1036
-1.3783 -0.9090 -0.6729
-1.4765 -0.8947 -0.5339
-1.4555 -0.9144 -0.1767
-1.5881 -0.9412 0.0826
-1.9092 -0.9223 -0.7399
-1.8918 -0.8890 -0.8181
-1.4533 -0.9133 -0.7859
-1.6773 -0.9152 -0.0199
-1.8874 -0.8752 -0.7670
-1.5932 -0.8886 -0.8116
-1.5486 -0.9085 -0.0600
-1.5410 -0.8588 -0.5899
-1.5475 -0.8181 -0.3218
-1.8485 -0.2015 -0.0240
-1.8478 -0.1993 -0.0864
-2.0374 -0.2139 -0.1569
-1.8506 -0.2026 -0.2215
-1.9677 -0.2185 0.0611
-2.1252 -0.2355 0.0348
-1.9589 -0.1906 -0.0263
-2.0367 -0.1954 -0.1029
-2.0983 -0.2280 -0.1205
-2.2536 -0.1998 0.2185
-1.9572 -0.2005 0.1162
-1.9285 -0.2064 0.0876
-2.1101 -0.2204 0.0984
-2.1595 -0.2029 0.0942
-2.0033 -0.2105 0.0240
-2.1739 -0.2149 0.0301
-2.2149 -0.2245 0.0020
-2.0038 -0.1953 -0.0596
-2.1571 -0.2233 -0.1205
-2.1373 -0.1962 -0.1870
-2.0757 -0.1998 -0.1953
-2.1696 -0.1985 -0.2179
-2.2743 -0.2459 -0.2237
-2.1683 -0.2329 -0.2608
-1.9660 -0.1908 -0.2879
-1.8464 -0.2072 -0.3516
-2.2214 -0.1844 -0.3894
-2.2575 -0.2077 -0.2993
-2.2137 -0.2118 0.2401
-2.0449 -0.1977 -0.1918
-1.5244 -0.7998 -0.2912
-1.5026 -0.8179 -0.2991
-1.9758 -0.1987 -0.2540
-2.1755 -0.2035 -0.2649
-2.0036 -0.1973 -0.0871
-1.9312 -0.2111 0.1505
-2.2039 -0.2220 0.2040
-2.2661 -0.1799 0.1692
-2.2078 -0.2214 0.0683
-2.1391 -0.2004 -0.0646
-2.1959 -0.1961 -0.0674
-1.9671 -0.1856 -0.0982
-2.1667 -0.1974 -0.0959
-2.0087 -0.2066 -0.1158
-2.1953 -0.1960 -0.1248
-2.1737 -0.2045 -0.1558
-2.2253 -0.1935 -0.1607
-2.2959 -0.1983 -0.1560
-2.2170 -0.2201 -0.1870
-2.2021 -0.2106 -0.2929
-2.2515 -0.1913 -0.3594
-1.4329 -0.8717 -0.2689
-1.8415 -0.2074 -0.0539
-2.2872 -0.2214 -0.0195
-1.8406 -0.1992 -0.1217
-1.8757 -0.2145 -0.2951
-1.9096 -0.2008 -0.1931
-1.8731 -0.1906 -0.2170
-1.8418 -0.2105 -0.2857
-1.8725 -0.1999 -0.3854
-1.8786 -0.2091 -0.2326
-1.8421 -0.2124 -0.3279
-1.9870 -0.2048 0.1527
-2.0132 -0.1952 0.1174
-2.2594 -0.2136 0.1449
-2.3385 -0.2269 0.1619
-2.0219 -0.2063 0.0485
-2.3183 -0.1978 0.0202
-2.3121 -0.2205 -0.0001
-2.3137 -0.2173 -0.0935
-2.3626 -0.2329 -0.1254
-2.2788 -0.2124 -0.1884
-2.2203 -0.2190 -0.2535
-1.8468 -0.2056 -0.2850
-2.3415 -0.2192 -0.3612
-2.1982 -0.2068 -0.3652
-1.9721 -0.2133 -0.0096
-1.9020 -0.1903 -0.3504
-1.8416 -0.2085 -0.3883
-1.9093 -0.2092 -0.1180
-2.0780 -0.1928 -0.0145
-2.2810 -0.1626 0.1974
-2.0770 -0.2292 0.1325
-1.9935 -0.2125 0.0891
-2.3549 -0.2121 0.1140
-2.0662 -0.2032 0.0525
-2.2513 -0.1936 0.0822
-2.0779 -0.2048 -0.0636
-2.1143 -0.2210 -0.2295
-2.0847 -0.2307 -0.2621
-2.0879 -0.1870 -0.3284
-2.1177 -0.1833 -0.3598
-2.2122 -0.1922 0.1881
-2.3705 -0.1631 0.1651
-1.8443 -0.2088 0.0650
-1.9769 -0.2077 -0.1847
-2.4181 -0.2054 -0.2186
-2.3442 -0.1589 0.1962
-2.3189 -0.1715 0.1677
-2.3906 -0.2079 0.1509
-2.3870 -0.2014 0.0839
-2.4169 -0.2119 0.0615
-2.3718 -0.2167 -0.0396
-2.1382 -0.2049 -0.0736
-2.4060 -0.2162 -0.0711
-2.0129 -0.2293 -0.1160
-2.3629 -0.2058 -0.1575
-2.4011 -0.2042 -0.1866
-2.1753 -0.2084 -0.2185
-2.3781 -0.2227 -0.2289
-2.3350 -0.2003 -0.2573
-2.1178 -0.1815 -0.2902
-2.1613 -0.2128 -0.4068
-2.0130 -0.2070 -0.2541
-1.9862 -0.2455 -0.3597
-1.9406 -0.2109 -0.3861
-1.8426 -0.2115 0.0202
-1.9381 -0.1980 -0.4028
-2.0381 -0.2105 -0.3245
-2.0943 -0.2071 0.0870
-2.1027 -0.2261 0.0196
-2.3570 -0.2087 -0.0126
-2.3604 -0.2368 -0.0613
-2.3838 -0.1901 -0.1251
-2.1485 -0.2181 -0.2629
-2.0614 -0.1940 -0.2847
-2.1723 -0.2194 -0.3319
-1.8446 -0.2041 -0.3475
-2.0041 -0.2006 -0.3771
-2.0319 -0.2055 -0.4157
-2.0708 -0.2216 -0.4389
-1.9077 -0.2121 -0.4173
-1.9387 -0.2065 -0.2866
-1.8411 -0.2058 -0.3816
-1.9071 -0.2067 -0.3514
-1.9059 -0.2048 -0.2865
-1.8409 -0.2095 -0.3529
-2.1698 -0.2241 0.0965
-2.1311 -0.2052 0.0534
-2.3399 -0.1905 0.0451
-2.2529 -0.1938 0.0248
-1.8474 -0.1796 -0.0340
-2.3190 -0.1999 0.0217
-2.2951 -0.2029 -0.0062
-1.9381 -0.1941 -0.0578
-2.2303 -0.2027 -0.1040
-1.9401 -0.1994 -0.1233
-2.1383 -0.2049 -0.1293
-2.2631 -0.1960 -0.1318
-2.2116 -0.1746 -0.1606
-2.2659 -0.2017 -0.1992
-1.9808 -0.2211 -0.2244
-2.2499 -0.1926 -0.2974
-1.9776 -0.2451 -0.3036
-2.0037 -0.2109 -0.3181
-2.3860 -0.1902 -0.3574
-2.4273 -0.2129 -0.3968
-1.9442 -0.2165 -0.3846
-2.1184 -0.1885 -0.4245
-1.8415 -0.2272 -0.0934
-2.1076 -0.2134 -0.0431
-2.1663 -0.2017 -0.1025
-2.3108 -0.1775 -0.1324
-2.4252 -0.2288 -0.2640
-2.3397 -0.2275 -0.3053
-2.3508 -0.1966 -0.3297
-2.2888 -0.1990 -0.3351
-2.2874 -0.1956 -0.3983
-2.2191 -0.2541 -0.4583
-2.1885 -0.2587 -0.4886
-1.9155 -0.2537 -0.2304
-2.4386 -0.2073 -0.1288
-1.8733 -0.2218 -0.3587
-1.8727 -0.2028 -0.4172
-1.8747 -0.2149 -0.0944
-2.0302 -0.1965 0.0783
-1.9110 -0.2222 -0.2703
-1.9969 -0.2006 0.0125
-2.1131 -0.2184 -0.1653
-2.2047 -0.1621 -0.3194
-2.0072 -0.2001 -0.1916
-2.0088 -0.2071 -0.2627
-2.1529 -0.1823 0.0118
-2.3091 -0.2255 -0.0455
-2.2034 -0.2128 -0.0720
-2.3411 -0.2144 -0.2655
-2.2140 -0.2422 -0.3119
-2.1979 -0.2153 -0.3737
-2.3869 -0.2401 -0.4810
-2.3182 -0.2042 0.1407
-2.3050 -0.2290 0.1174
-2.2916 -0.2072 0.0490
-2.0073 -0.2116 -0.1261
-1.8404 -0.2290 -0.2899
-1.8758 -0.2304 -0.2665
-2.0597 -0.2561 -0.0974
-1.8738 -0.3155 -0.2049
-2.1520 -0.1918 0.1389
-2.2547 -0.1942 0.0172
-2.2609 -0.1951 -0.0743
-2.2194 -0.1867 -0.2265
-2.2782 -0.2174 -0.2602
-1.9334 -0.1569 -0.0673
-2.3169 -0.1875 -0.3568
-2.0275 -0.1968 0.1373
-1.9057 -0.2235 -0.3603
-1.9017 -0.2629 0.0711
-1.9012 -0.2171 -0.2986
-1.9070 -0.2688 -0.3780
-2.1761 -0.2224 -0.0386
-2.0962 -0.2724 -0.0617
-1.9339 -0.1274 -0.2470
-1.8974 -0.1927 0.0986
-1.9289 -0.2096 0.1053
-1.9081 -0.2261 -0.2320
-2.1668 -0.2040 -0.1631

