0.0481 -0.0888 0.0473
0.0286 -0.0260 0.0248
0.0396 -0.0833 0.0475
0.0345 -0.0579 0.0296
0.0446 -0.0804 0.0421
0.0010 -0.0553 0.0234
-0.0135 -0.1035 0.0548
0.0479 -0.0594 0.0781
0.0417 -0.0846 0.0214
0.0902 -0.1939 0.0223
-0.0416 -0.1877 0.2175
0.0625 -0.1179 0.0305
0.1997 -0.5796 0.7613
0.1045 -0.1964 0.1400
0.0614 -0.1322 0.0948
0.5120 -1.0719 -1.0540
-0.0446 -1.2318 -0.8054
0.1942 -1.1266 -0.7531
0.9047 -1.0316 -1.2925
0.0760 -1.1267 -0.6257
0.8889 -1.1062 -1.2235
0.4418 -1.2724 -1.1323
0.3660 -1.0094 -0.7889
0.0029 -1.1713 -0.9032
0.0837 -0.9706 -0.6177
0.5787 -1.1365 -0.8822
0.8445 -1.2215 -1.3430
0.8698 -1.4807 -1.3436
0.7694 -1.1181 -1.0868
0.4288 -1.1152 -1.2250
0.7430 -1.0553 -1.4446
0.6181 -1.0972 -0.9135
0.6206 -1.1645 -0.8705
0.6179 -1.0381 -0.9082
0.7443 -1.0530 -1.1615
0.8849 -1.0723 -1.2462
0.7048 -1.0601 -0.8120
0.9569 -1.0022 -1.0096
1.0160 -1.0207 -0.9360
1.1064 -0.8572 -0.8244
0.6099 -1.0705 -1.1726
1.0981 -1.2453 -1.5540
0.9983 -1.1288 -0.9923
0.6464 -1.0860 -1.1724
0.5839 -1.0046 -1.0790
0.6407 -1.0623 -0.9749
0.2760 -1.1429 -1.1552
0.3947 -0.9075 -1.1042
0.6452 -1.0980 -1.3197
0.7078 -0.8407 -1.1630
0.8319 -1.0018 -1.1867
0.2162 -1.0911 -0.7047
0.9987 -0.9232 -0.9818
0.3672 -0.9894 -1.1075
0.1306 -1.0886 -0.7300
1.0421 -0.9960 -1.1352
0.8046 -1.0790 -1.1800
-0.0492 -1.1706 -0.9064
-0.0593 -1.1998 -0.8862
0.4744 -1.0947 -1.0541
1.0588 -1.1076 -1.3561
0.1651 -1.0908 -0.7780
0.0954 -0.9998 -0.6547
0.6017 -1.0344 -1.7486
0.0412 -1.1559 -1.0716
0.1967 -1.0977 -0.8167
0.6629 -1.1192 -1.3427
0.9900 -1.1126 -1.3190
0.1173 -1.0946 -1.0709
0.1547 -1.0137 -0.7730
0.1836 -0.9763 -0.7683
0.1934 -1.0149 -0.7664
0.3331 -1.0646 -0.9744
1.0306 -1.1016 -1.1401
0.6512 -1.0674 -1.1971
0.3867 -1.0166 -1.4958
0.2236 -1.2320 -1.0708
0.5740 -1.0488 -1.2330
0.6723 -1.1262 -1.0638
1.0767 -1.0562 -1.7325
0.7928 -1.2703 -1.0849
0.5978 -1.1175 -0.7554
1.1967 -1.1633 -1.7734
1.0084 -1.1386 -1.2885
0.5941 -0.8043 -1.6504
0.3318 -1.3026 -1.7616
0.4233 -0.3717 -1.0651
0.6792 -1.2382 -1.1095
0.8354 -1.2181 -1.3042
0.7953 -1.2613 -1.0243
0.8697 -1.4450 -0.9280
1.2349 -1.2173 -1.9008
0.9198 -1.1915 -1.4693
1.1330 -1.0854 -1.7666
1.1719 -1.0559 -1.8313
1.0087 -1.1963 -1.2833
0.2763 -1.0387 -1.1705
0.3214 -1.0550 -1.1700
0.5488 -1.1043 -1.0972
0.5864 -1.0759 -0.9059
0.6483 -1.1145 -0.9477
0.6588 -1.1182 -0.8782
0.6828 -1.1106 -0.8472
-0.2374 -1.4962 -1.2584
0.5643 -1.1649 -2.0845
0.4532 -0.5392 -1.6064
0.6389 -1.2446 -0.7983
0.7335 -1.1731 -0.8634
0.8745 -1.3932 -1.0716
0.7392 -1.1232 -1.1630
0.4816 -0.9712 -1.0010
0.6924 -1.1919 -1.4838
0.6853 -1.1788 -1.4604
1.0191 -1.1232 -1.4814
0.2138 -1.2367 -0.9947
0.8365 -1.0112 -1.2257
0.6073 -1.0350 -1.0174
1.2264 -1.3067 -1.4300
0.2928 -1.0633 -0.8167
0.6665 -1.0959 -1.0400
0.6351 -0.9764 -0.9796
1.1472 -1.0678 -1.0808
0.8753 -0.9924 -0.8552
0.4873 -0.9307 -0.5454
0.4104 -1.0801 -1.2561
0.3116 -1.1110 -1.1797
0.0935 -1.1915 -0.9531
0.0341 -1.1141 -0.7938
0.2139 -1.1873 -0.9705
0.2856 -1.2874 -1.0670
0.2603 -1.1799 -0.9444
0.4212 -1.0634 -1.0333
0.2926 -1.1480 -0.9018
0.1466 -1.1235 -0.7143
1.0576 -1.0887 -1.2295
1.1076 -1.0333 -1.1866
1.1538 -1.1214 -1.1954
1.1133 -0.9950 -1.1295
1.1285 -1.1260 -1.1065
1.1172 -0.9303 -1.0892
1.0553 -1.0266 -0.9565
1.0284 -1.0016 -0.9396
0.0617 -1.1619 -0.9972
-0.3954 -1.4640 -1.7238
0.3896 -1.1591 -1.1744
0.6420 -1.0570 -1.8093
0.4389 -0.7550 -1.8433
0.6759 -1.0355 -1.7893
0.3827 -1.1053 -1.1650
1.1401 -1.2261 -1.3987
0.1641 -0.9845 -0.7765
0.6102 -0.9770 -1.0507
0.6479 -1.0096 -1.7503
-0.1977 -1.4019 -1.1060
-0.0603 -1.1641 -1.1789
-0.0418 -1.2155 -1.1815
0.0186 -1.1708 -0.9645
0.3248 -1.0224 -1.7035
-0.0406 -0.3802 -1.9672
0.0057 -0.4152 -2.0029
0.0223 -0.4048 -1.9830
0.0448 -0.4077 -1.9896
0.1835 -0.3739 -1.8380
0.1695 -1.1744 -1.5119
0.1915 -0.9724 -1.2806
0.2091 -0.4112 -1.9440
-0.0498 -0.7427 -1.2673
-0.0668 -0.4898 -1.4625
0.0874 -0.3380 -1.8764
0.3564 -1.1254 -0.9663
0.1586 -1.0855 -1.4410
-0.1341 -0.4141 -2.0148
-0.3889 -0.6757 -1.5592
-0.1116 -0.4067 -2.0161
-0.0396 -0.4806 -2.3235
0.0185 -0.4894 -2.3134
-0.0431 -0.4049 -2.0672
-0.0377 -0.4496 -2.1181
-0.0331 -0.4047 -1.9792
-0.0774 -0.3711 -2.0400
0.0128 -0.3916 -1.9940
0.0288 -0.4337 -2.1233
0.0230 -0.4295 -2.0914
0.0214 -0.4229 -2.0583
0.0354 -0.4032 -2.0107
0.0644 -0.4057 -2.1113
0.0563 -0.4162 -2.1107
0.0781 -0.4257 -2.1243
0.0821 -0.5044 -2.0537
0.0783 -0.4036 -2.0590
0.1595 -0.7233 -2.4825
0.1354 -0.5177 -2.0727
0.1017 -0.4075 -1.9393
0.1526 -0.4178 -2.0737
-0.0565 -0.5228 -1.5179
0.1460 -0.3900 -1.9336
0.1425 -0.3935 -1.9110
0.1708 -0.3786 -1.9551
0.1797 -0.3814 -1.9270
0.2173 -0.3639 -1.9245
0.2147 -0.4441 -1.9785
0.2163 -0.3908 -1.9125
0.2722 -0.4419 -1.9829
0.2617 -0.3955 -1.9564
0.2518 -0.4063 -1.9332
-0.1106 -1.0894 -1.3007
0.2523 -0.3869 -1.8879
-0.0394 -0.8318 -1.4227
0.2892 -0.4073 -1.9241
0.3521 -0.5300 -2.0819
0.4039 -0.5413 -2.0383
-0.0037 -1.0650 -1.4427
0.1665 -0.3609 -1.4314
0.2102 -0.7455 -1.5847
0.1245 -0.4494 -2.0990
0.1887 -0.4520 -2.1078
0.1752 -0.4688 -2.1216
0.1045 -0.4048 -1.9781
0.1561 -0.4188 -2.0166
0.1091 -0.3890 -1.9263
0.1288 -0.4649 -2.0971
-0.0519 -0.4024 -2.0285
0.2360 -0.4612 -2.0404
0.0706 -0.4922 -2.0670
0.2777 -0.4397 -1.9921
0.1037 -0.4569 -2.0294
-0.0533 -0.4257 -2.0875
-0.0042 -0.4341 -2.0974
-0.0037 -0.4329 -2.0106
0.1138 -0.5043 -2.1489
0.1296 -0.3998 -1.9662
0.2523 -0.4124 -1.9354
0.0576 -0.6790 -1.3611
0.3263 -1.0545 -1.4235
0.0970 -0.4110 -1.9876
0.6539 -0.9197 -1.7495
-0.6228 -1.4096 -1.5936
-0.6178 -1.5297 -1.5967
-0.3829 -1.0882 -1.7904
0.1389 -0.5312 -2.3052
-0.5068 -1.1483 -1.3719
-0.4269 -1.0962 -1.4960
-0.2738 -1.1273 -1.6455
-0.1626 -1.1238 -1.8562
-0.1879 -1.2149 -1.8125
-0.1223 -1.1324 -1.7188
-0.1592 -1.1428 -1.2542
0.0525 -1.1534 -1.7074
-0.0424 -1.1956 -1.4932
0.0297 -1.1959 -1.6390
0.0929 -1.0040 -1.6874
0.1322 -1.1400 -1.4541
0.3589 -1.1056 -1.6975
0.0684 -0.5555 -2.3347
0.0922 -0.5551 -2.2337
-0.3696 -1.1253 -1.6334
-0.1649 -0.9739 -1.4427
0.2018 -1.0127 -1.4113
0.0555 -0.6256 -2.2563
-0.0143 -0.2459 -1.2583
0.0096 -0.2683 -1.2967
0.0753 -0.2885 -1.3394
0.1684 -0.2694 -1.3460
-0.0072 -0.3438 -2.0534
0.1552 -0.4156 -2.0528
0.1333 -0.2167 -1.6908
-0.0055 0.0272 -1.3288
-0.1632 -0.3109 -2.0501
0.0711 -0.4603 -2.3212
-0.0067 -0.3961 -2.1895
0.0201 -0.3661 -2.0629
0.0223 -0.3657 -2.1231
0.0528 -0.3951 -2.1205
0.0772 -0.3846 -2.1393
0.0697 -0.3442 -2.1490
0.0869 -0.4183 -2.0879
0.2041 -0.3777 -2.1844
0.2544 -0.4036 -2.1271
0.1804 -0.4409 -2.2775
0.2977 -0.4004 -2.1174
0.2199 -0.4068 -1.9594
0.3003 -0.3919 -2.1096
-0.1364 -0.2117 -1.8172
-0.1455 -0.3631 -2.0794
0.0094 -0.3541 -2.0375
-0.1087 -0.1894 -1.3804
0.2461 -0.2777 -1.9589
-0.6219 -0.9425 -1.9511
0.1701 -0.3950 -2.3786
-0.4465 -1.2027 -1.8461
0.3307 -0.3986 -2.3558
0.1074 -1.1103 -1.4743
-0.0022 -0.4794 -2.5538
0.0254 -0.3708 -2.0285
0.2772 -0.3811 -2.0012
0.1360 -0.2247 -1.5261
0.1648 -0.8879 -1.4326
0.1808 -0.3734 -2.0773
0.4697 -1.0889 -1.9119
0.3278 -0.4153 -2.0896
0.0330 -0.2610 -1.7989
0.1074 -0.3874 -2.1543
0.2652 -0.4354 -2.1539
0.0545 0.0014 -1.5173
0.4209 -1.0061 -1.9389
0.2267 -0.4555 -2.2234
0.0257 -0.1078 -1.7248
-0.0596 -0.3785 -2.2007
0.1892 -0.9297 -1.2911
-0.0992 -0.3383 -2.2598
-0.2136 -0.3951 -2.3911
-0.0249 -0.4840 -2.1867
-0.1395 -0.4145 -2.0704
-0.3975 -0.3886 -2.1649
-0.1511 -0.4131 -2.4341
-0.3628 -0.4358 -2.3621
-0.3389 -0.4796 -2.5544
-0.1404 -0.4601 -2.3526
-0.2772 -0.4066 -2.4188
0.0153 -0.4676 -2.3236
-0.1521 -0.3697 -2.1279
-0.0989 -0.3504 -2.3686
-0.1533 -0.4014 -2.1395
-0.0869 -0.4069 -2.3784
-0.0623 -0.3880 -2.4332
-0.1117 -0.3949 -2.1730
0.1989 -0.4463 -2.4975
0.0475 0.0344 -1.6994
0.1827 -0.3598 -1.9109
-0.1159 -0.3877 -2.2387
-0.1470 -0.3867 -2.1487
-0.1362 -0.4113 -2.1442
0.0753 -0.4327 -2.1507
0.3890 -0.4995 -2.4585
0.0855 -0.3768 -2.1168
-0.0616 -0.4176 -2.0159
0.1312 -0.3983 -2.2235
0.2305 -0.4501 -2.5441
-0.3984 -0.3390 -1.9462
-0.2918 0.2028 -1.5646
-0.3156 0.0002 -1.8258
-0.2431 0.3386 -1.4678
-0.2330 0.2146 -1.5546
-0.4021 -0.3313 -2.1134
-0.3648 -0.3188 -2.1532
-0.4124 0.1434 -2.0574
-0.1226 -0.3341 -2.0371
-0.6068 -0.3568 -1.9364
-0.3081 0.2287 -1.5377
-0.2280 -0.4128 -2.1535
-0.1066 -0.3800 -2.3955
-0.1779 -0.4112 -1.9689
0.2306 -0.4853 -2.4002
-0.1844 -0.4174 -2.0514
-0.1360 -0.4347 -1.9546
0.2037 -0.4992 -2.4042
-0.5530 -1.0793 -1.7587
-0.2486 -1.1314 -1.5129
-0.2349 -1.1128 -1.6034
-0.0567 -1.1734 -1.6993
-0.7029 -1.5407 -1.8778
0.1356 -0.4013 -2.1159
-0.0535 -0.2996 -2.1778
0.1569 -0.4300 -2.0916
-0.3189 -1.0085 -1.4960
-0.5985 -1.0187 -1.6728
-0.5597 -1.0521 -1.6796
-0.0188 -1.0218 -1.7190
-0.6627 -1.0604 -1.6256
-0.2373 -1.1707 -1.4196
0.2832 -1.2897 -1.6485
-0.5006 -1.0480 -1.6847
-0.2204 -1.0351 -1.7983
-0.4591 -1.0243 -1.5316
0.0431 -1.1470 -1.7052
-0.0822 -1.1444 -1.5873
0.1647 -1.0869 -1.4049
0.5677 -0.9760 -1.5154
-0.0359 -1.0851 -1.4093
-0.5784 -1.1323 -1.7690
-0.5799 -1.1695 -1.7454
-0.3640 -1.2036 -1.9123
-0.3844 -1.1405 -1.8421
-0.4016 -1.1457 -1.8264
-0.2774 -1.1078 -1.7184
-0.1481 -1.1541 -1.6969
-0.0262 -1.1074 -1.6755
-0.4239 -1.0933 -1.5868
-0.2841 -1.0717 -1.6174
-0.3218 -1.1147 -1.5211
-0.2005 -1.1874 -1.7754
0.6273 -1.1171 -1.6424
0.1026 -0.5750 -2.6446
-0.1567 -0.4456 -1.9806
0.0019 -0.3843 -2.0045
-0.1674 -0.4288 -2.0227
-0.0152 -0.3250 -1.9876
-0.3065 -0.3972 -1.9708
-0.2113 -0.4539 -2.2655
-0.2539 -0.3024 -1.9454
-0.1244 -0.4080 -2.3450
-0.0807 -0.5036 -2.5266
-0.1723 -0.3184 -2.0936
-0.1760 -0.4616 -2.1903
-0.0174 -0.6060 -2.6481
-0.1501 -0.4840 -2.1840
-0.0991 -0.2836 -2.1645
0.0156 -0.3450 -2.0794
-0.6137 -1.1922 -1.7546
-0.2905 -1.1554 -1.4636
-0.1568 -1.1335 -1.4790
-0.0227 -0.3507 -2.1207
0.0325 -0.3860 -2.1554
0.1357 -0.3877 -2.0395
-0.1793 -0.4997 -2.2090
-0.0442 -0.3842 -2.2927
0.0343 -0.2887 -1.9866
-0.2587 0.1510 -1.4918
0.0950 -0.3142 -1.8655
-0.4419 -0.3918 -2.0565
0.1342 -0.3957 -1.9262
-0.6146 -1.2453 -1.7547
-0.3995 -0.3845 -2.0290
-0.1209 -0.3719 -1.9113
-0.0544 -0.4423 -1.9524
0.1200 -0.3527 -1.8855
-0.5621 -0.3785 -1.9415
-0.2265 -0.3759 -1.9244
-0.1318 -0.3675 -1.9052
-0.5769 -0.3711 -1.9370
0.1396 -0.3772 -2.2496
-0.1439 -0.3810 -2.0195
-0.4055 -0.3744 -2.3119
0.0617 -0.3721 -2.1141
-0.3838 -0.3843 -2.2247
-0.2208 -0.3610 -2.2259
-0.1947 -0.3675 -2.1799
0.1391 -0.3737 -1.9972
-0.1254 -0.3838 -2.4372
0.1057 -0.3683 -2.2042
-0.0995 -1.0892 -1.7536
0.0595 -0.3741 -2.1702
-0.6121 -0.3851 -2.2766
-0.4606 -0.3727 -2.3506
-0.4271 -0.3833 -2.2475
-0.1708 -0.3833 -1.9960
-0.1920 -0.3688 -2.1276
0.0590 -0.3806 -2.1004
-0.6262 -0.4001 -2.3397
0.1321 -0.3720 -2.0611
-0.5388 -0.3782 -2.2644
-0.5433 -0.3873 -2.3893
-0.4579 -0.3840 -2.1478
-0.4415 -0.3979 -2.1657
-0.4223 -0.3882 -2.4480
-0.3938 -0.3859 -2.2556
-0.3907 -0.3897 -2.4605
-0.2729 -0.4089 -2.4892
-0.2224 -0.3908 -2.1470
-0.2260 -0.4058 -2.0738
-0.1681 -0.3903 -2.1209
-0.1443 -0.3807 -2.2372
-0.1335 -0.3862 -2.2146
-0.0228 -0.3587 -2.0680
-0.0150 -0.3787 -1.9115
0.0865 -0.3930 -1.9473
-0.2923 -0.3578 -2.2239
-0.4721 -0.3945 -1.9483
-0.4695 -0.3909 -2.2966
-0.4477 -0.4367 -2.1332
-0.4204 -0.3795 -2.1188
-0.3562 -0.3563 -2.2014
-0.3517 -0.4420 -1.9712
-0.2734 -0.3943 -2.1129
-0.2343 -0.3957 -1.9956
-0.2020 -0.3658 -1.9935
-0.1807 -0.3617 -1.9490
0.1024 -0.3722 -1.9840
-0.0353 -0.4396 -1.9499
-0.3957 -0.4743 -1.9925
-0.2293 -0.3915 -2.2119
-0.5700 -0.3945 -2.1126
-0.6042 -0.3998 -2.5337
0.1087 -0.3907 -2.4179
-0.3678 -0.4016 -2.4723
-0.1007 -0.4021 -2.4577
0.0691 -0.3980 -2.3582
-0.6044 -1.0075 -1.7397
-0.4669 -0.3756 -2.3098
-0.3667 -0.3827 -2.2887
-0.3014 -0.3655 -2.3158
-0.5522 -0.3515 -1.9307
-0.5681 -0.3998 -2.3605
-0.5344 -0.4057 -2.3938
-0.4966 -0.3749 -2.3554
-0.5032 -0.4013 -2.2852
-0.4719 -0.3843 -2.2653
-0.4571 -0.3898 -2.0181
-0.4547 -0.3923 -2.1320
-0.4341 -0.3764 -2.3192
-0.4149 -0.3892 -2.3732
-0.4031 -0.3590 -1.9559
-0.3781 -0.4084 -2.1121
-0.3108 -0.4157 -1.9581
-0.2429 -0.3296 -2.1753
-0.2220 -0.3651 -2.3446
-0.2260 -0.3813 -2.0336
-0.1672 -0.3722 -2.2516
-0.1704 -0.3817 -2.1530
-0.1574 -0.3732 -2.0024
-0.0710 -0.4049 -2.4944
-0.1378 -0.3996 -1.9394
-0.0627 -0.3840 -2.3643
-0.1187 -0.4078 -1.9741
-0.1083 -0.3689 -2.0043
-0.0250 -0.3661 -2.3421
-0.0379 -0.3614 -2.1703
-0.0004 -0.3818 -2.1341
0.0625 -0.3730 -2.3440
0.0826 -0.3685 -2.2293
0.0634 -0.3881 -1.9905
0.1376 -0.3805 -2.1827
0.1367 -0.3533 -2.0903
-0.2823 -0.3600 -2.3472
-0.0433 -0.3638 -2.2115
0.0811 -0.3739 -2.2030
-0.7457 -0.7102 -3.5570
-0.6021 -0.3452 -2.0544
-0.5743 -0.3864 -2.2197
-0.5591 -0.3800 -2.2929
-0.4727 -0.3473 -2.0407
-0.4491 -0.3794 -2.1025
-0.3226 -0.3473 -2.3348
-0.2144 -0.3871 -2.3104
-0.2082 -0.3665 -2.1220
-0.2098 -0.3643 -2.0048
-0.2155 -0.3488 -1.9135
-0.1827 -0.3966 -2.0950
-0.1281 -0.3367 -2.2260
-0.0959 -0.3313 -2.1171
-0.0342 -0.3641 -2.1262
0.0866 -0.3752 -2.3100
0.0780 -0.3725 -2.0770
0.0695 -0.3632 -2.0544
0.1107 -0.3833 -2.0309
0.1062 -0.3735 -1.9346
0.0629 -0.3476 -2.0006
-0.1457 -0.3886 -2.3925
-0.0951 -0.3642 -1.9087
0.6142 -0.7146 -3.5898
-0.4664 -0.3775 -2.4555
-0.4099 -0.3966 -2.4155
0.0582 -0.3856 -2.4340
0.1422 -0.4093 -2.1981
-0.6018 -0.3298 -1.9232
0.0350 -0.3514 -1.8937
-0.3656 -0.3680 -1.9171
-0.4379 -0.4359 -2.1162
0.0399 -0.4224 -1.9935
-0.2736 -0.3710 -2.0950
0.0308 -0.3754 -2.0090
-0.6159 -0.3785 -2.1447
0.1397 -0.3825 -1.9546
-0.2307 -0.3700 -2.1913
-0.6190 -0.3963 -2.3514
0.1300 -0.3666 -2.0972
0.1398 -0.3796 -2.1430
0.1623 -0.3796 -2.2727
0.1545 -0.3889 -2.3070
0.0798 -0.3676 -2.0446
0.1153 -0.3879 -2.2230
-0.4652 -0.3924 -2.1957
0.0246 -0.3723 -2.1171
0.0264 -0.3578 -2.1858
0.0292 -0.3643 -2.2135
0.0712 -0.3656 -2.0032
-0.0475 -0.3591 -2.2508
0.1734 -0.4303 -2.4169
0.1164 -0.3892 -2.0348
-0.2824 -0.3707 -2.3635
-0.4774 -0.3689 -2.0344
-0.5715 -0.4020 -1.9585
-0.4776 -0.3753 -2.0852
-0.4612 -0.4048 -2.0265
-0.1636 -0.2847 -2.2802
-0.1296 -0.4010 -1.9967
-0.0892 -0.3917 -1.9241
0.0353 -0.3952 -2.0440
0.1241 -0.3575 -2.1619
-0.1466 -0.3885 -2.2001
-0.3699 -0.3920 -1.9292
-0.1745 -0.4173 -1.9802
-0.1148 -0.3965 -1.9269
-0.2367 -0.4163 -2.2571
-0.1632 -0.4250 -2.1468
0.0698 -0.3931 -2.1303
0.1074 -0.3865 -1.9932
-0.1710 -0.4092 -2.2543
0.1710 -0.3954 -2.4772
-0.4087 -0.3912 -2.3281
-0.3716 -0.3993 -2.2662
-0.3018 -0.4197 -2.3719
0.1447 -0.3866 -2.2573
-0.2105 -0.4094 -2.3333
-0.1414 -0.3993 -2.2542
-0.0161 -0.3893 -2.3656
0.0733 -0.3564 -2.3473
-0.4785 -0.4064 -2.2862
-0.4268 -0.4063 -2.2679
0.1277 -0.3386 -2.4059
0.0951 -0.3943 -2.2214
-0.1113 -0.4199 -1.9368
-0.1241 -0.4075 -1.9274
0.0578 -0.4120 -1.9252
-0.1212 -0.3973 -2.2503
-0.0480 -0.3559 -2.2822
0.0334 -0.3990 -1.9443
0.0697 -0.3984 -2.1899
-0.2248 -0.3860 -2.1419
-0.1834 -0.3823 -2.0352
0.1517 -0.3671 -2.1088
0.0340 -0.3591 -2.1369
0.1393 -0.3865 -2.4234
-0.6389 -0.4157 -2.0350
-0.4354 -0.3689 -2.0261
-0.3030 -0.3806 -2.2845
-0.1714 -0.1626 -1.9210
-0.2293 -0.4240 -1.9772
-0.1547 -0.4346 -2.0283
-0.1232 -0.3998 -2.4560
-0.0475 -0.3828 -1.9697
0.0994 -0.3637 -2.3131
-0.6032 -0.4402 -2.5640
-0.5975 -0.3698 -1.9457
-0.1928 -0.3941 -2.2052
-0.1871 -0.4003 -2.1550
-0.1259 -0.4139 -1.9283
-0.1313 -0.4408 -1.9584
0.1179 -0.3409 -2.0510
0.0805 -0.3912 -2.0753

