0.0045 -0.0711 0.0236
-0.2762 -1.0505 0.4931
-0.4028 -0.9866 0.5443
-0.4182 -0.9957 0.6162
-0.5187 -1.0377 0.7553
-0.4850 -0.8071 0.4015
-0.7270 -1.4047 1.2638
-0.6203 -0.9962 0.7450
-0.6167 -0.8194 0.5627
-0.6881 -0.7030 0.6367
-0.4081 -1.0385 0.4734
-0.5155 -1.0303 0.7432
-0.6422 -0.7662 0.5340
-0.6397 -0.8973 -0.4361
-0.8708 -1.0272 -0.1823
-0.8435 -0.9258 -0.2436
-0.8105 -0.9642 -0.3149
-0.7134 -1.0249 -0.4294
-0.7968 -0.8726 -0.4213
-0.7374 -0.8935 -0.5538
-1.0341 -0.9706 -0.2477
-0.9579 -0.8904 -0.3240
-0.6377 -0.9555 -0.3019
-0.8312 -0.9467 -0.1942
-0.8275 -0.9189 -0.4542
-0.6739 -0.8196 -0.0133
-0.7109 -0.9610 0.0096
-0.9675 -1.0274 -0.1306
-0.9387 -0.9790 -0.1700
-0.9813 -0.7671 -0.2173
-1.0398 -0.9218 -0.1885
-0.7077 -0.9730 -0.5003
-0.7801 -0.9645 -0.5197
-0.9473 -1.0089 -0.4540
-0.9966 -0.9208 -0.4735
-1.0848 -0.9125 -0.4363
-1.2058 -0.9284 -0.4141
-0.9537 -0.9420 -0.6241
-1.0271 -0.9285 -0.5996
-0.9511 -0.9000 -0.6728
-1.1140 -0.9106 -0.5607
-1.1024 -0.9324 -0.5914
-0.9132 -0.9242 -0.7293
-1.1300 -0.8987 -0.5763
-1.0652 -0.9352 -0.6380
-0.8983 -0.9393 -0.7428
-0.8861 -0.3462 -0.1007
-0.8709 -0.3363 -0.1622
-0.9557 -0.9031 -0.1992
-0.8745 -0.9991 -0.5149
-1.1151 -0.2824 -0.0909
-0.8296 -1.0371 -0.6367
-1.2047 -0.9506 -0.4695
-1.5762 -1.0328 -0.2571
-0.8348 -0.2907 -0.1064
-0.8740 -0.5492 0.0593
-0.8214 -0.3078 -0.0792
-0.8284 -0.3028 -0.0911
-0.8390 -0.1281 -0.1278
-0.8888 0.1730 -0.2901
-0.8441 -0.5152 -0.0736
-0.8378 -0.4854 -0.1146
-0.8498 -0.3449 -0.1514
-0.8924 -0.3859 -0.1253
-1.0409 -0.3112 -0.0563
-1.1100 -0.3649 -0.0130
-0.9650 -0.4728 -0.1802
-0.9381 -0.3456 0.2854
-1.0995 -0.3879 0.1226
-1.1399 -0.3994 0.1002
-0.9236 -0.4854 -0.1568
-0.9512 -0.4745 -0.1551
-1.2280 -0.8812 -0.6059
-1.2105 -0.9335 -0.6355
-1.1454 -0.8809 -0.6374
-1.1636 -0.8515 -0.5974
-1.6093 -0.9077 -0.2965
-1.9392 -0.9613 0.1179
-0.8519 -0.9003 -0.0455
-0.6168 -0.8993 -0.4582
-0.9105 -0.9362 -0.1587
-0.9792 -0.9094 -0.5146
-1.8210 -0.8816 0.2304
-1.0806 -0.8065 -0.3332
-1.9173 -0.8348 0.4238
-1.1948 -0.9439 -0.2531
-1.0165 -0.7631 -0.2032
-1.0121 -0.9429 -0.2748
-1.1420 -0.9794 -0.7650
-1.2008 -0.7652 -0.5840
-1.3641 -1.0785 -0.5816
-1.1061 -0.9104 -0.6611
-1.2642 -0.9586 -0.5599
-1.7961 -0.8922 0.5811
-0.7427 -0.1815 -0.3227
-1.1493 -0.2293 -0.1439
-0.9628 -0.4595 -0.4084
-1.1268 -0.1817 -0.1689
-0.9815 -0.8454 -0.2167
-1.2042 -0.9133 -0.6046
-0.8478 -0.9243 -0.0040
-0.6162 -0.9359 -0.4272
-1.3274 -0.9240 -0.3880
-1.1939 -0.8884 -0.1540
-0.7617 -0.8024 -0.5246
-0.8338 -0.9187 -0.5581
-0.9253 -0.8818 -0.6250
-1.3511 -0.8333 -0.2640
-0.8479 -0.8967 -0.0440
-1.2225 -0.8950 -0.2780
-0.9187 -0.7468 -0.8041
-0.3660 -0.9888 -0.2167
-1.5815 -0.8025 -0.1171
-1.5766 -0.8360 -0.1839
-0.7717 -0.5030 -0.1193
-0.8200 -0.9456 -0.1745
-0.4216 -1.0180 -0.1821
-0.7022 -0.8224 0.1180
-0.9959 -0.8434 -0.5526
-0.8227 -0.2796 -0.1628
-0.8164 -0.7800 -0.7943
-0.4062 -0.8007 -0.5022
-0.8556 -0.2930 -0.0490
-0.8398 -0.7726 -0.7984
-0.9566 -0.8663 -0.2660
-0.6700 -0.7717 -0.0470
-0.6701 -0.8552 -0.0307
-0.7010 -0.7994 -0.0052
-0.8416 -0.4654 -0.1987
-0.8673 -0.3602 -0.1923
-0.8440 -0.8748 -0.7333
-0.6574 -0.8830 -0.2913
-0.8599 -0.8599 -0.2140
-0.7415 -0.7760 -0.7699
-0.8761 -0.5086 -0.0893
-0.7714 -0.3805 -0.1233
-1.0638 -0.2806 -0.1268
-0.9568 -0.8092 -0.2249
-0.7268 -0.9094 -0.6864
-0.9227 -0.8293 -0.6021
-0.6307 -0.8663 0.4723
-0.9829 -0.8272 -0.2446
-0.7124 -0.4242 0.2439
-0.9007 -0.9019 -0.1550
-0.8608 -0.8453 -0.1594
-0.8101 -0.2133 -0.0701
-0.8128 -0.8525 -0.8005
-0.9877 -0.9159 -0.3951
-0.8691 -0.4277 -0.1188
-0.8164 -0.4491 -0.1369
-0.7477 -0.4435 -0.1115
-0.4630 -0.8999 0.1911
-1.5689 -0.8666 -0.0812
-1.0197 -0.8615 -0.6087
-1.0493 -0.9330 -0.4286
-1.5970 -0.9592 -0.0988
-0.3221 -0.8457 -0.2224
-0.7546 -0.7532 -0.7740
-0.7276 -0.8272 -0.7913
-0.4755 -0.8145 -0.5202
-1.1041 -0.8428 -0.4354
-1.2943 -0.8920 -0.2489
-0.2077 -0.8946 -0.1422
-0.6716 -0.4557 0.2038
-0.5805 -0.8599 -0.4422
-0.6267 -0.8960 -0.6924
-0.9807 -0.9026 -0.5415
-0.8104 -0.3006 -0.0926
-0.9917 -0.7965 -0.2202
-0.7440 -0.3586 -0.0019
-0.9825 -0.7198 -0.1465
-0.8142 -0.5133 -0.1105
-0.8082 -0.5055 -0.1154
-0.6978 -0.3825 0.2098
-0.7078 0.0794 -0.1320
-0.6241 -0.8722 0.4869
-0.8847 -1.2368 -0.4728
-1.0297 -0.8681 -0.1695
-0.8944 -0.9001 -0.4120
-0.9544 -0.8765 -0.2693
-0.3932 -0.8710 -0.3901
-0.1877 -0.9136 -0.1694
-1.3055 -0.8714 -0.2594
-0.9987 -0.9235 -0.5890
-0.4233 -0.9226 -0.1860
-0.5618 -0.9196 0.4266
-0.7769 -0.8526 -0.6994
-0.8260 -0.2914 -0.0978
-0.8238 -0.2655 -0.0578
-1.1702 -0.3687 -0.1186
-0.7399 -0.3951 0.0946
-0.7285 -0.4374 0.1503
-0.6921 -0.2928 0.1989
-0.8076 -0.6237 -0.0846
-0.7296 -0.9640 -0.3770
-0.8230 -0.8734 -0.1920
-0.3641 -0.8320 -0.4540
-0.8198 -0.3146 -0.1109
-0.1613 -0.9079 -0.2583
-0.8632 -0.8550 -0.6914
-1.3507 -0.8775 -0.2702
-0.7153 0.0968 -0.1532
-0.7170 -0.4281 0.1172
-0.7318 -0.4847 0.1106
-0.7419 -0.3726 0.0536
-0.8622 -0.3626 -0.2032
-0.8519 -0.4994 -0.1662
-0.8379 -0.5003 -0.1177
-0.7344 -0.4262 0.1018
-0.8783 -0.5186 -0.1665
-0.6436 -0.6424 0.4311
-0.9606 -0.8524 -0.2326
-0.6425 -0.8704 -0.3050
-0.3267 -0.9087 -0.3216
-0.7025 -0.0062 -0.1154
-0.7222 0.1025 -0.1273
-1.3821 -0.8660 -0.2413
-0.7281 -0.3679 0.2565
-0.6886 -0.5125 0.2352
-0.8855 -0.5231 -0.1375
-0.7255 -0.4338 0.1914
-0.6635 -0.5230 0.2305
-0.7057 0.0546 -0.0516
-0.7195 -0.0148 -0.0021
-0.7050 0.0640 -0.0720
-0.6955 0.0929 -0.1336
-0.6630 -0.8838 -0.0370
-0.7395 -0.7889 0.3501
-0.7005 -0.8498 -0.4883
-0.8337 -0.8664 -0.1648
-0.8414 -0.4076 -0.1409
-0.7501 -0.3885 0.0430
-0.7665 -0.3927 -0.1196
-0.7159 0.0247 -0.0408
-0.7140 0.0421 -0.0609
-0.7142 0.0097 -0.0327
-0.7111 0.0238 -0.0415
-0.7386 0.0109 -0.1006
-0.5398 -0.9020 0.3694
-0.7095 0.0317 -0.0257
-0.5510 -0.8402 -0.4988
-0.7039 -0.0237 -0.1226
-0.7108 0.1081 -0.1601
-0.9247 -0.3003 -0.1116
-0.7185 0.0687 -0.1438
-0.7773 -0.4180 -0.1169
-0.9024 -0.9121 -0.6434
-0.8403 -0.9379 -0.0570
-0.7680 -0.4578 -0.1491
-0.6613 -0.8633 -0.2734
-0.9743 -0.9289 -0.1893
-1.0025 -0.8932 -0.4731
-0.7494 -0.9099 -0.4927
-1.0131 -0.9357 -0.5257
-0.9178 -0.9145 -0.6184
-0.6838 -0.9081 -0.1425
-0.7273 -0.8852 0.1177
-0.9728 -0.8514 -0.2292
-0.8677 -0.8974 -0.6964
-0.3661 -0.9075 -0.4177
-0.5336 -0.9575 0.2157
-0.4059 -0.9571 -0.1943
-0.2472 -0.8794 -0.2533
-0.7975 -0.9050 -0.2331
-0.5983 -0.9221 -0.6525
-0.6104 -0.9035 -0.3299
-0.8111 -0.2883 -0.1180
-0.8054 -0.3037 -0.1088
-0.3811 -0.8812 0.0407
-1.0549 -0.9451 -0.1961
-0.5323 -0.9402 -0.5224
-0.4883 -0.9206 -0.4549
-0.5222 -0.8908 -0.3534
-0.7506 -0.9071 -0.7111
-0.6800 -0.9358 -0.3969
-0.7712 -0.8834 -0.7891
-0.3349 -0.9004 -0.2400
-0.5970 -0.9001 0.2579
-0.3088 -0.8413 -0.0967
-0.7305 -0.8743 -0.7678
-1.3716 -0.8816 -0.2355
-1.3197 -0.8939 -0.3796
-1.4790 -0.8981 -0.2519
-1.2427 -0.9185 -0.4172
-0.8063 -0.8935 -0.8659
-1.1922 -0.8949 -0.5917
-1.2075 -0.8980 -0.5692
-0.9613 -0.9195 -0.7457
-1.6457 -0.9264 -0.2638
-0.9619 -0.8930 -0.7297
-0.6673 -0.9002 0.0122
-0.4464 -0.8566 -0.3260
-0.7132 -0.9302 -0.0574
-0.7186 -0.9324 -0.0771
-0.4673 -0.9982 0.2262
-1.1461 -0.8960 -0.2743
-0.5547 -0.9069 -0.5799
-0.4714 -0.9457 -0.3952
-0.8141 -0.9002 -0.3107
-0.9817 -0.8998 -0.5936
-1.5308 -0.8881 -0.2937
-1.5921 -0.9124 -0.0962
-0.8668 -0.8890 -0.3034
-0.9671 -0.9117 -0.6166
-1.0900 -0.9005 -0.1811
-0.7101 0.0983 -0.1529
-0.8071 -0.8697 -0.8647
-0.6979 -0.9883 0.4039
-1.1148 -0.8839 -0.6440
-1.5831 -0.9040 -0.2143
-1.4905 -0.8576 -0.2303
-1.9942 -0.7863 0.1874
-1.0187 -0.8882 -0.5256
-0.9818 -0.8927 -0.5512
-0.8956 -0.8902 -0.6052
-0.9171 -0.9111 -0.4991
-1.1743 -0.8812 -0.2762
-0.7652 -0.9477 -0.6012
-0.8642 -0.8822 -0.2185
-0.9918 -0.8264 -0.2283
-0.5723 -0.8971 -0.5804
-0.7950 -0.9039 -0.3378
-1.5115 -0.9211 -0.3007
-1.5522 -0.9079 -0.1085
-0.6448 -0.9388 -0.0694
-1.6992 -0.5601 -0.0378
-0.7129 0.0010 -0.0177
-0.7618 -0.8509 -0.8241
-1.1233 -0.8965 -0.6694
-0.6464 -0.8565 -0.0509
-1.5990 -0.7965 -0.3068
-0.8289 -0.8504 -0.8448
-1.2082 -0.9098 -0.6150
-1.2483 -0.9015 -0.5775
-1.0076 -0.9078 -0.5151
-0.7018 -0.8919 -0.0509
-0.7390 -0.9039 -0.6634
-1.2838 -0.8943 -0.2564
-0.6281 -0.8885 -0.5937
-0.5676 -0.8925 -0.4553
-0.6008 -0.9011 -0.4356
-1.7687 -0.8629 0.4553
-0.6259 -0.9136 -0.4271
-1.3518 -0.9086 -0.5354
-1.3288 -0.8943 -0.5221
-0.9953 -0.9250 -0.6903
-0.7562 -0.8917 -0.8200
-2.0700 -0.8674 0.1211
-1.5255 -0.9093 -0.1730
-0.9610 -0.9093 -0.3946
-0.6317 -0.8920 -0.3762
-1.8975 -0.9143 0.1948
-2.0983 -0.8648 0.0197
-1.5958 -0.8933 -0.3041
-1.6190 -0.8003 -0.3324
-1.5568 -0.6938 -0.4436
-1.5356 -0.7461 -0.4605
-1.4841 -0.7517 -0.4893
-1.4615 -0.9169 -0.5431
-1.9059 -0.8408 -0.3319
-2.1972 -0.8499 -0.1614
-1.6302 -0.7624 -0.3713
-1.5710 -0.7988 -0.4039
-2.2094 -0.8805 -0.1087
-0.7156 -0.8926 -0.7391
-1.0212 -0.8880 -0.1204
-0.9926 -0.8901 -0.5734
-1.5058 -0.9275 -0.2634
-0.9521 -0.9433 -0.2666
-1.2513 -0.8955 -0.3476
-0.9869 -0.9397 -0.2659
-2.1874 -0.8673 -0.2082
-1.5291 -0.8919 -0.1489
-1.9637 -0.9085 0.3711
-1.0240 -0.9102 -0.4044
-0.8115 -0.8910 -0.2535
-1.1719 -0.8857 -0.6462
-0.8453 -0.3495 -0.1787
-1.8600 -0.9450 0.2165
-0.9884 -0.9024 -0.5145
-1.5332 -0.8648 -0.3592
-2.2097 -0.8247 -0.0177
-1.4309 -0.7936 -0.4711
-2.0348 -0.9007 -0.2386
-0.6893 0.0813 -0.1224
-0.3357 -0.9287 -0.4276
-1.5788 -0.6496 -0.4746
-1.5354 -0.7777 -0.5244
-1.5285 -0.7092 -0.4983
-1.5456 -0.9011 -0.5444
-1.6046 -0.6838 -0.4512
-1.1139 -0.9008 -0.6954
-1.5557 -0.7202 -0.4667
-1.4933 -0.7431 -0.4907
-1.2208 -0.8900 -0.6173
-0.7261 -0.8753 -0.7426
-0.7663 -0.9066 -0.6689
-1.4829 -0.9178 -0.2474
-1.9204 -0.9046 0.3625
-1.1963 -0.9067 -0.7303
-1.3976 -0.9246 -0.6451
-1.3147 -0.9506 -0.0056
-0.7077 -0.9067 -0.3914
-1.3734 -0.9141 -0.6004
-1.3849 -0.8911 -0.5555
-1.0969 -0.9039 -0.6162
-2.2065 -0.9855 0.3215
-1.7431 -0.8792 0.0692
-1.3112 -0.9131 -0.5614
-0.8635 -0.9063 -0.2149
-1.7811 -0.9097 0.4520
-0.7385 -0.9189 -0.5466
-1.3518 -0.8772 -0.4719
-1.7389 -0.9112 -0.0150
-2.2279 -0.8567 -0.2194
-0.8255 -0.3219 -0.1638
-2.0553 -0.8866 0.4953
-2.1013 -0.7836 -0.1384
-1.9015 -0.9101 -0.2558
-1.5572 -0.7936 -0.4261
-1.7982 -0.7011 -0.4996
-1.7037 -0.6173 -0.5362
-1.4931 -0.7263 -0.5829
-1.5527 -0.8909 -0.5783
-2.0513 -0.9092 -0.3631
-0.8217 -0.5200 -0.1217
-1.5533 -0.8197 -0.4022
-1.8801 -0.8846 -0.2795
-1.6940 -0.8748 -0.1956
-1.0039 -0.8872 -0.2465
-1.5198 -0.9041 -0.0063
-1.0235 -0.8812 -0.2014
-1.2826 -0.8698 0.0035
-1.0199 -0.8921 -0.0585
-1.6993 -0.6196 -0.5165
-0.6450 -0.8564 -0.3152
-1.1229 -0.9785 -0.6738
-2.2915 -0.9337 -0.2509
-1.7437 -0.9279 0.5372
-1.3216 -0.8934 -0.3252
-1.5848 -0.9049 -0.1975
-1.7052 -0.8936 0.0706
-2.3306 -0.8975 0.6136
-0.8008 -0.8944 -0.1985
-1.6352 -0.9095 0.0586
-1.1457 -0.9282 -0.1614
-2.1150 -0.9495 -0.0503
-2.0096 -0.9228 -0.1806
-1.4867 -0.8451 -0.6108
-1.9253 -0.8341 -0.4531
-2.2689 -0.8729 -0.4007
-1.5321 -0.6068 -0.5732
-0.8068 -0.8485 -0.8350
-1.5339 -0.7065 -0.6310
-1.6394 -0.5584 -0.6245
-1.6191 -0.6319 -0.6111
-0.7851 -0.8486 -0.8276
-1.5377 -0.7738 -0.6184
-1.6464 -0.5949 -0.5094
-1.2987 -0.9309 0.1271
-1.5573 -0.6554 -0.6827
-1.0900 -0.8844 0.0167
-1.5361 -0.8841 -0.7182
-0.9469 -0.8869 -0.5198
-0.7530 -0.9023 -0.2031
-0.9665 -0.9221 -0.4895
-0.8777 -0.8994 -0.4883
-1.0282 -0.8909 -0.4246
-1.9136 -0.9158 0.2286
-0.8261 -0.8928 -0.2829
-0.8002 -0.8927 -0.7475
-1.5326 -0.7538 -0.6756
-0.8190 -0.8805 -0.8915
-1.4154 -0.8600 -0.5917
-1.1425 -0.9659 0.1168
-1.5636 -0.6527 -0.5097
-1.4813 -0.8481 -0.5446
-1.5495 -0.7930 -0.6697
-1.5195 -0.8068 -0.4398
-1.5527 -0.8701 -0.3895
-1.6234 -0.6810 -0.7561
-0.7273 -0.8883 -0.5275
-0.8470 -0.9047 -0.8400
-1.5684 -0.9124 -0.7968
-1.4160 -0.9015 -0.8160
-1.5506 -0.9493 -0.7520
-1.3796 -0.9174 -0.2315
-1.4418 -0.8951 -0.7620
-1.1576 -0.9557 -0.2509
-1.5646 -0.7056 -0.7558
-1.2290 -0.9203 -0.8260
-1.6572 -0.7109 -0.7195
-0.6864 -0.9067 -0.5469
-1.0999 -0.9060 0.0791
-2.2919 -0.9380 -0.1448
-1.2418 -0.8815 -0.8357
-1.2032 -0.8438 -0.0555
-2.0555 -0.8977 0.1904
-2.2704 -0.8766 0.0069
-1.3936 -0.9278 -0.6603
-0.7855 -0.8077 -0.7826
-1.6244 -0.6011 -0.6880
-1.5750 -0.7143 -0.7055
-1.3404 -0.9119 -0.8208
-0.7923 -0.9066 -0.8571
-1.6328 -0.6226 -0.5250
-1.8562 -0.7407 -0.4799
-1.5790 -0.8110 -0.3814
-0.9803 -0.8938 -0.2397
-1.2388 -0.8766 -0.7910
-1.5895 -0.6668 -0.7380
-0.8709 -0.9052 -0.9667
-1.3606 -0.8823 -0.7845
-0.9059 -0.8845 -0.1946
-1.7469 -0.6875 -0.8417
-1.5123 -0.8859 -0.5784
-1.3748 -0.9081 -0.8802
-0.9143 -0.8987 -0.4063
-0.8970 -0.9258 -0.4009
-2.3942 -0.9946 -0.0520
-0.9156 -0.8873 -0.4962
-0.9943 -0.9460 -0.3549
-1.1407 -0.9371 -0.1549
-0.8328 -0.8782 -0.4714
-1.6688 -0.9261 -0.2900
-0.8438 -0.9039 -0.7346
-1.6275 -0.8111 -0.8624
-1.8171 -0.7310 -0.8408
-1.3403 -0.8792 -0.9017
-2.0859 -0.8515 0.1177
-0.6993 -0.9036 -0.4320
-0.9825 -0.9269 -0.5461
-1.6215 -0.6145 -0.5523
-1.2608 -0.8732 -0.9973
-1.0378 -0.9251 -0.9901
-1.4262 -0.8875 -0.9644
-1.5046 -0.9130 -0.5570
-1.0301 -0.9042 -0.8879
-0.9738 -0.8975 -0.5044
-1.1600 -0.9168 -0.4663
-0.8346 -0.9178 -0.8304
-1.1075 -0.8763 -0.4586
-0.7317 -0.9127 -0.7539
-1.5606 -0.9089 -0.3553
-1.5101 -0.6690 -0.6335
-0.8564 -0.9113 -0.4742
-1.2435 -0.9085 -1.0484
-0.9130 -0.9187 -0.5292
-0.9648 -0.9600 -0.2405
-0.8633 -0.9282 -0.4016
-1.7873 -0.6504 -0.5410
-1.6807 -0.5864 -0.5790
-1.5432 -0.8143 -0.7199
-1.3771 -0.8934 -0.7831
-1.7189 -0.6928 -0.8173
-0.9326 -0.8634 -1.1730
-1.4175 -0.8530 -1.1747
-0.9906 -0.8726 -1.0508
-1.0823 -0.8743 -1.0011
-0.8294 -0.8848 -0.8612
-1.6647 -0.6756 -0.7953
-1.5304 -0.6885 -0.4837
-1.9844 -0.8686 -0.4072
-1.3256 -0.8956 -0.3199
-1.1634 -0.9027 -1.2100
-1.3050 -0.8761 -1.2034
-1.3143 -0.9894 -0.2192
-1.0971 -0.8893 -0.9207
-1.3381 -0.8748 -1.0797
-1.4700 -0.8934 -0.4912
-1.5460 -0.8057 -0.4610
-1.5182 -0.7514 -0.4440
-1.5670 -0.7819 -0.4142
-1.5660 -0.1524 -1.0742
-0.8457 -0.8471 -1.1236
-0.9483 -0.8346 -1.1275
-0.9664 -0.8858 -1.1538
-0.9419 -0.8610 -1.1288
-1.6593 -0.6118 -0.5171
-1.0030 -0.9006 -1.0422
-1.0758 -0.8867 -0.9814
-1.2260 -0.8957 -0.8199
-1.4291 -0.8720 -0.7767
-1.5251 -0.6690 -0.5280
-1.6075 -0.7383 -0.6393
-1.2313 -0.9006 -0.8796
-1.5109 -0.8550 -0.5405
-1.5297 -0.8208 -0.4365
-0.9989 -0.8311 -1.2468
-1.6852 -0.5929 -0.6055
-1.3106 -0.8391 -1.1650
-1.2812 -0.8679 -0.3912
-1.2421 -0.8867 -1.1156
-1.1268 -0.8765 -1.0860
-1.5459 -0.6538 -0.7138
-1.6442 -0.1734 -0.8512
-1.5262 -0.7429 -0.5092
-1.2822 -0.8804 -1.2157
-1.5438 -0.6951 -0.7409
-1.6492 -0.1786 -0.8419
-1.3458 -0.8789 -0.8969
-1.0570 -0.8943 -0.9488
-1.0150 -0.8626 -1.0446
-1.1802 -0.7532 -1.0221
-1.5750 -0.5798 -0.6023
-1.4827 -0.5763 -0.6081
-1.5046 -0.6994 -0.6379
-1.1644 -0.8344 -0.6471
-1.1623 -0.8408 -1.0490
-1.6262 -0.1624 -1.2475
-1.6165 -0.8400 -0.2843
-0.8007 -0.9421 -0.8007
-1.5208 -0.5564 -0.6873
-1.4449 -0.9008 -0.7677
-1.5307 -0.1641 -1.3311
-1.5400 -0.8884 -0.7272
-1.7017 -0.1802 -1.4205
-1.7377 -0.6001 -0.5507
-1.4314 -0.1649 -1.2718
-1.6721 -0.1639 -1.2922
-1.8406 -0.1896 -1.2078
-1.8234 -0.1933 -1.1636
-1.7839 -0.1767 -1.1806
-1.6809 -0.1940 -1.3749
-1.6403 -0.1398 -1.5764
-1.4426 -0.8860 -0.8031
-1.7695 -0.1746 -1.1701
-1.6159 -0.2124 -1.0657
-1.7447 -0.1676 -1.1791
-1.6924 -0.1957 -1.1043
-1.3847 -0.1767 -1.2523
-0.9430 -0.8953 -1.3815
-1.3494 -0.1775 -1.4908
-1.5949 -0.1672 -1.0520
-1.7491 -0.1786 -1.3252
-1.4907 -0.1872 -1.2700
-1.5989 -0.1736 -1.6375
-1.4343 -0.1474 -1.4788
-1.8147 -0.1851 -1.0812
-1.8513 -0.1891 -1.2129
-1.7570 -0.1825 -1.1618
-1.9162 -0.1735 -1.2698
-1.7546 -0.1817 -1.2094
-1.7636 -0.1881 -1.2958
-1.6591 -0.1715 -1.4450
-1.4918 -0.1989 -1.3426
-1.4392 -0.1793 -1.3520
-1.4349 -0.1919 -1.4389
-1.9982 -0.2061 -1.3453
-1.6772 -0.1898 -1.1167
-1.6420 -0.1375 -1.1607
-1.7162 -0.1914 -1.4468
-1.5881 -0.1747 -1.1577
-1.5223 -0.1879 -1.3207
-1.5999 -0.1753 -1.5134
-1.5883 -0.1681 -1.4944
-1.4348 -0.1996 -1.4720
-1.4011 -0.1769 -1.5146
-1.8088 -0.2124 -1.1713
-1.7758 -0.1860 -1.2731
-1.5975 -0.1570 -1.1945
-1.6581 -0.1819 -1.4067
-1.4475 -0.1901 -1.3795
-1.3863 -0.1864 -1.2460
-1.6530 -0.1724 -1.0843
-1.9884 -0.2102 -1.3053
-1.9483 -0.2074 -1.2419
-1.8804 -0.1831 -1.2627
-1.7824 -0.1718 -1.2020
-1.7868 -0.2412 -1.2998
-1.5458 -0.1802 -1.3465
-1.3838 -0.1588 -1.2508
-1.5756 -0.1575 -1.6202
-1.8273 -0.3115 -1.2786
-1.5626 -0.1818 -1.2693
-1.5679 -0.1929 -1.6138
-1.4688 0.0657 -1.0614
-1.9266 -0.1978 -1.2307
-1.6364 -0.1679 -1.0915
-1.5683 -0.1716 -1.0648
-1.5271 -0.1635 -1.0257
-1.5839 -0.1321 -1.2533
-1.7840 -0.1819 -1.4970
-1.8475 -0.2195 -1.4943
-1.5969 -0.2011 -1.3378
-1.5115 -0.1815 -1.3586
-1.4529 -0.1974 -1.4129
-1.8057 -0.1817 -1.1946
-1.7327 -0.2018 -1.4121
-1.8746 -0.2046 -1.2439
-1.8327 -0.1622 -1.2286
-1.7421 -0.1499 -1.4305
-1.6889 -0.1623 -1.5350
-1.4320 -0.2231 -1.4300
-1.8587 -0.1693 -1.1232
-1.8210 -0.2096 -0.9863
-1.9455 -0.2305 -1.0349
-1.7878 -0.2101 -1.0141
-1.8579 -0.1717 -1.1272
-1.9616 -0.1955 -1.1874
-1.7440 -0.1825 -1.1575
-1.8308 -0.1878 -1.1911
-1.6415 -0.1786 -1.0953
-1.6392 -0.2310 -1.1819
-1.6937 -0.1984 -1.3806
-1.5833 -0.1820 -1.3096
-1.5210 -0.2019 -1.2933
-1.4208 -0.1924 -1.2152
-1.5851 -0.2065 -1.0504
-1.7096 -0.1595 -1.1880
-1.9977 -0.1937 -1.3217
-2.1065 -0.1668 -1.0892
-2.1311 -0.2028 -1.0787
-1.8271 -0.1936 -0.9921
-1.7365 -0.1799 -1.0524
-1.7604 -0.1627 -1.0874
-1.7785 -0.2136 -1.0787
-1.8289 -0.1658 -1.2180
-1.6760 -0.1911 -1.1826
-1.7913 -0.1425 -1.3158
-1.8163 -0.2263 -1.4676
-1.7516 -0.2159 -1.4279
-1.5270 -0.2105 -1.3281
-1.5068 -0.2187 -1.3914
-1.6516 -0.1765 -1.1828
-1.6679 -0.1866 -1.0705
-1.6778 -0.1502 -1.2158
-1.7426 -0.2070 -1.4348
-1.6650 -0.2102 -1.3814
-1.7346 -0.2540 -1.4580
-1.5168 -0.1674 -1.4299
-1.8403 -0.1587 -1.2164
-1.8634 -0.1965 -0.9689
-2.0184 -0.1848 -1.0165
-1.8765 -0.2011 -0.9740
-1.6940 -0.1610 -1.0412
-1.7458 -0.2156 -1.0531
-1.6952 -0.1855 -1.0580
-1.7812 -0.1750 -1.0932
-1.8684 -0.2087 -1.1486
-1.7357 -0.1854 -1.1336
-1.8044 -0.2105 -1.1556
-1.7029 -0.1948 -1.2835
-1.6335 -0.1550 -1.3415
-1.6980 -0.1758 -1.4818
-1.6022 -0.2067 -1.3793
-1.5074 -0.2013 -1.3434
-1.5096 -0.2054 -1.3607
-1.5988 -0.2067 -1.4525
-1.5664 -0.2124 -1.4579
-1.5454 -0.1938 -1.4778
-1.3849 -0.2051 -1.3615
-1.5396 -0.1922 -1.0107
-1.5438 -0.1981 -1.0018
-1.9948 -0.1752 -1.0419
-1.7518 -0.1962 -1.4068
-1.7457 -0.2031 -1.4186
-1.6857 -0.1845 -1.0868
-1.5336 -0.1792 -1.3912
-1.6207 -0.1924 -1.3419
-1.6690 -0.1262 -1.2188
-1.7112 -0.2028 -1.2763
-1.7257 -0.1836 -1.2949
-1.7560 -0.1630 -1.4848
-1.7870 -0.2131 -1.5606
-1.9898 -0.1870 -1.3085
-2.0383 -0.1962 -1.2872
-1.8169 -0.1950 -1.4695
-1.8534 -0.2089 -1.0342
-1.6315 -0.2274 -1.0384
-1.7869 -0.1995 -1.1343
-1.8571 -0.2136 -1.1691
-1.8780 -0.1960 -1.1806
-1.8232 -0.1894 -1.1663
-1.6315 -0.1479 -1.1974
-1.7514 -0.2101 -1.2206
-1.7639 -0.2203 -1.2344
-1.7060 -0.2005 -1.2936
-1.6612 -0.2233 -1.3019
-1.6578 -0.1940 -1.3122
-1.7026 -0.2025 -1.3454
-1.6943 -0.2034 -1.3413
-1.5559 -0.2151 -1.2900
-1.6489 -0.1941 -1.3499
-1.7012 -0.1600 -1.3765
-1.6392 -0.1899 -1.3853
-1.7004 -0.2058 -1.4737
-1.4924 -0.1977 -1.3379
-1.6226 -0.1907 -1.4652
-1.5234 -0.1652 -1.4304
-1.7040 -0.1867 -1.1228
-1.4130 -0.1950 -1.2223
-1.7176 -0.2084 -1.0847
-1.8046 -0.2469 -1.1301
-1.7839 -0.1781 -1.1552
-1.8091 -0.1903 -1.2733
-1.7568 -0.2374 -1.0561
-1.6116 -0.2241 -1.2964
-1.8527 -0.1907 -0.9989
-1.8316 -0.1960 -1.0033
-1.8384 -0.2109 -1.0376
-1.8468 -0.1992 -1.0739
-1.5492 -0.1837 -0.9984
-1.8261 -0.2009 -1.1007
-1.7610 -0.2004 -1.1178
-1.7751 -0.1941 -1.1427
-1.7614 -0.1885 -1.1844
-1.6966 -0.1649 -1.1560
-1.7723 -0.2080 -1.2696
-1.7403 -0.2070 -1.2877
-1.5716 -0.1906 -1.3144
-1.5997 -0.2047 -1.3647
-1.6248 -0.1962 -1.4108
-1.5554 -0.2060 -1.4498
-1.5667 -0.1900 -1.5145
-1.5812 -0.1696 -1.4806
-1.6112 -0.1977 -1.6520
-1.8730 -0.2015 -1.1921
-1.9396 -0.1929 -1.2275
-1.8945 -0.1908 -1.4566
-1.8282 -0.2208 -1.5801
-2.0038 -0.2005 -1.2704
-1.7166 -0.2548 -1.4451
-1.4158 -0.1953 -1.2241
-1.8216 -0.1972 -1.0869
-1.7777 -0.1782 -1.0783
-1.5768 -0.1829 -1.0198
-1.7663 -0.1896 -1.0962
-1.7318 -0.1893 -1.0878
-1.7067 -0.2142 -1.0957
-1.7503 -0.2015 -1.4062
-1.7252 -0.2135 -1.4068
-1.6413 -0.1796 -1.4100
-1.6508 -0.1917 -1.4608
-1.6766 -0.2045 -1.3782
-1.6680 -0.2041 -1.3718
-1.7886 -0.2084 -1.0433
-1.8109 -0.1967 -1.1181
-1.7344 -0.1893 -1.1412
-1.8008 -0.2078 -1.5585
-1.6913 -0.1747 -1.2982
-1.6397 -0.2065 -1.3202
-1.4180 -0.1833 -1.2254
-1.5956 -0.1996 -1.2956
-1.6241 -0.1714 -1.0192
-1.6763 -0.1935 -1.2693
-1.7811 -0.2534 -1.5984
-1.7982 -0.1993 -1.1088
-1.8114 -0.2096 -1.1746
-1.7497 -0.2117 -1.5998
-1.6564 -0.2029 -1.3497
-1.4455 -0.1802 -1.2548
-1.5495 -0.1927 -0.9988
-1.4201 -0.1948 -1.2190
-1.8881 -0.1888 -1.0503
-1.8851 -0.2168 -1.1941
-1.7284 -0.1923 -1.0313
-1.7748 -0.2140 -1.2300
-1.8054 -0.1729 -1.4955
-1.8509 -0.1951 -1.2071
-1.8715 -0.2268 -1.1817
-1.8858 -0.2060 -1.1860
-1.7391 -0.1344 -1.5538

