-0.5934 -0.6968 0.3469
-0.6117 -0.9798 0.9034
-0.4304 -1.2240 1.0605
-0.9041 -1.0002 0.6668
-0.7490 -0.1722 0.5699
-0.1959 -0.7059 0.8861
-0.5982 -0.2903 0.5821
-0.4583 -0.2880 0.7182
-0.6380 -0.7378 0.3367
-0.5324 -1.1101 0.4604
-0.5592 -0.9030 0.5451
-0.5822 -0.8034 0.2590
-0.5753 -0.8860 0.4879
-0.6372 -0.8978 0.4918
-0.7003 -0.7927 0.2460
-0.6554 -0.8860 0.4352
-0.7415 -0.7964 0.1580
-0.7294 -0.9301 0.5981
-0.5533 -0.8688 0.5803
-0.7239 -0.8515 0.3244
-0.4834 -0.8747 0.6411
-0.2814 -0.8274 0.5559
-0.6879 -0.2767 0.5842
-0.3510 -0.8583 0.9659
-0.3748 -1.0357 0.9618
-0.3684 -0.8281 0.4581
-0.2787 -0.9062 0.3534
-0.2563 -0.9423 0.9619
-0.2385 -0.8134 0.5557
-0.4301 -0.6787 0.4324
-0.3589 -0.8782 0.7895
-0.9216 -0.8267 0.5497
-0.4539 -0.1773 0.0995
-0.5534 -0.8610 0.4190
-1.0295 -0.7040 1.3952
-0.6522 -0.8974 0.4915
-0.6934 -0.9388 0.6228
-0.1628 -1.0457 0.8278
-0.2554 -0.9749 0.9747
-0.3257 -0.7893 0.8149
-0.3440 -0.8812 0.7752
-0.7658 -0.9329 0.4223
-0.3315 -0.9683 0.6013
-0.4133 -0.4734 0.7995
-0.4903 -0.7982 0.6572
-0.6984 -0.8921 0.3909
-0.8488 -0.9127 0.4989
-0.8938 -0.9064 0.3930
-0.2482 -1.0243 0.5705
-0.2153 -1.0075 0.9954
-0.1999 -0.9346 0.3063
-0.3558 -0.9386 0.8291
-0.7936 -0.9630 0.4480
-0.8343 -0.8708 0.3384
-0.7065 -0.6434 1.2824
-0.6033 -0.2668 0.7835
-0.6305 -0.4198 0.4249
-0.4962 -0.2783 0.6383
-0.5486 -0.7961 0.4779
-0.5579 -0.7348 0.4070
-0.6193 -0.1426 0.7262
-0.5986 -0.0615 0.6166
-0.6355 -0.1272 0.7078
-0.6405 -0.0924 0.6065
-0.6291 -0.1297 0.6339
-0.6226 -0.1012 0.6216
-0.1133 -0.5942 0.2436
-0.5845 -0.9317 0.3690
-1.1166 -0.9057 0.2551
-0.9374 -0.8151 0.1220
-1.2106 -0.9155 0.4606
-0.7319 -0.8587 0.4993
-1.2807 -0.8656 0.6047
-0.8562 -0.9532 0.5246
-0.8538 -0.8096 0.1514
-0.8846 -0.8371 0.1681
-0.8721 -0.8955 0.5478
-0.5273 -0.0890 0.1621
-0.6000 -0.7564 0.3658
-0.7832 -0.8563 0.4407
-0.9777 -0.9868 0.0815
-0.3133 -0.7694 0.5860
-0.3015 -0.7379 0.5138
-0.3771 -0.9584 0.5387
-0.6380 -0.6462 0.6351
-0.9070 -0.8107 0.5309
-0.8194 -0.3297 0.4706
-0.8111 -0.2892 0.4848
-0.8768 -0.3779 0.4527
-1.0169 -0.2759 0.5873
-0.6691 -0.3402 0.6061
-1.4333 -0.7453 0.5861
-1.5106 -0.7670 0.7081
-1.4377 -0.6439 0.6904
-1.4497 -0.6281 0.7260
-1.4363 -0.7388 0.7130
-0.8354 -0.5425 0.4704
-0.8022 -0.4213 0.5066
-0.2887 -0.9386 0.0155
-0.5643 -0.8546 0.4664
-0.6573 -0.3153 0.5436
-0.9085 -1.1093 1.1727
-1.0669 -0.8846 0.1194
-1.5277 -0.7143 0.6211
-1.1187 -0.8390 0.2187
-1.1643 -0.9062 0.1992
-1.1826 -0.8806 0.2378
-1.5030 -0.8133 0.6430
-0.3809 -0.9950 0.8531
-1.4366 -0.6104 0.6398
-1.1606 -0.8681 0.2152
-1.0373 -0.8620 0.0790
-1.1553 -0.8305 0.2853
-0.5853 -0.3191 0.6009
-0.7557 -0.8826 0.1067
-1.0751 -0.9434 0.0292
-0.6761 -0.8977 0.1243
-1.3524 -0.8862 0.3114
-0.8895 -0.8894 0.3486
-0.9652 -0.8581 0.4723
-1.3404 -0.9017 0.2490
-0.9486 -0.8809 0.4745
-1.0423 -0.8677 0.0290
-0.8159 -0.8486 0.3633
-0.8345 -0.9581 0.4295
-0.8883 -0.8661 0.5482
-0.7177 -0.5034 0.4759
-0.7939 -0.8907 0.4453
-0.6464 -1.6463 -0.1057
-1.0672 -0.8001 0.3010
-0.7597 -0.8920 0.3209
-1.1839 -0.8725 0.2268
-0.6212 -0.9025 0.4392
-0.6400 -0.8621 0.1214
-0.6534 -0.9040 0.4268
-0.4828 -0.9218 0.0093
-1.5617 -0.8091 0.7633
-1.3727 -0.7480 0.6354
-1.3244 -0.4599 0.5679
-1.4809 -0.8145 0.4519
-0.6641 -0.3070 0.5686
-0.6692 -0.1607 0.4931
-0.3512 -0.9657 0.8674
-0.6688 -0.1683 0.4869
-0.6807 -0.2885 0.5466
-0.7279 -0.2624 0.4821
-0.6769 -0.3046 0.5269
-1.3507 -0.9027 0.3336
-0.7293 -0.4922 0.5278
-0.7507 -0.4838 0.5318
-0.7478 -0.4439 0.4765
-1.4060 -0.9221 0.5181
-0.6993 -0.9278 0.0239
-1.5616 -0.6931 0.7172
-0.5118 -0.8604 -0.0876
-0.6893 -0.9000 0.0621
-0.6621 -0.9374 0.0604
-0.7160 -0.8948 0.3858
-1.6290 -0.7836 0.4509
-1.3504 -0.7999 0.3431
-0.7398 -0.8690 0.4104
-0.6452 -0.9544 0.5026
-0.7992 -0.9030 0.1479
-0.5121 -0.8846 -0.0269
-0.6337 -0.9092 0.1001
-0.7777 -0.9439 0.2363
-0.4972 -0.8228 -0.0614
-0.6606 -0.9099 0.0705
-0.6742 -0.8667 0.2544
-1.3167 -0.9688 0.7831
-1.0631 -0.8557 0.2522
-0.5724 -0.8976 -0.2034
-1.5159 -0.9124 0.4523
-1.0010 -0.3198 0.7347
-0.7341 -0.5734 0.4851
-0.7246 -0.8378 0.5241
-0.5780 -0.8894 0.4250
-1.2561 -0.9225 0.7199
-1.3848 -0.7948 0.7732
-1.4375 -0.8322 0.8283
-0.8214 -0.9304 0.2579
-0.7251 -0.9422 0.1668
-1.6031 -0.7807 0.8403
-1.5277 -0.8220 0.8007
-1.3051 -0.9080 0.3781
-1.5383 -0.8393 0.9730
-0.5769 -0.8569 0.4422
-0.7594 -0.5605 0.5168
-0.7375 -0.1596 0.5108
-0.7495 -0.1350 0.4765
-0.9156 -0.8997 0.5479
-0.9543 -0.7934 0.5201
-1.1551 -0.8520 0.0494
-1.5102 -0.8753 0.2722
-1.6843 -0.8822 0.3966
-1.8620 -0.7227 0.5049
-1.6589 -0.8719 0.3594
-1.7739 -0.7299 0.4822
-1.7292 -0.7755 0.5049
-1.6364 -0.5886 0.4993
-1.6597 -0.6826 0.5143
-1.7575 -0.8445 0.6010
-1.6338 -0.7346 0.5374
-1.5922 -0.6782 0.6214
-1.4936 -0.6887 0.5904
-1.5753 -0.7536 0.6307
-1.5953 -0.7497 0.7194
-1.5570 -0.6364 0.7351
-1.2045 -0.8973 0.4250
-0.8060 -0.8129 0.1621
-1.7172 -0.7694 0.6866
-0.7355 -0.8962 0.2614
-0.8311 -0.8775 0.5227
-0.6233 -0.9089 0.3716
-0.8830 -0.8865 0.5134
-0.8420 -0.8633 0.3056
-0.8435 -0.8801 0.4815
-1.2239 -0.8496 0.3104
-1.1986 -0.8591 0.6722
-1.5010 -0.8729 0.4366
-0.9340 -0.9643 0.4912
-1.3676 -0.8699 0.3397
-1.3451 -0.8495 0.3125
-1.4510 -0.9623 0.1264
-1.2480 -0.8883 0.2308
-0.9935 -0.8744 -0.0654
-0.8004 -0.3479 0.2571
-1.5080 -0.9181 0.4728
-1.0518 -0.8361 0.0863
-1.2721 -0.9002 0.0971
-1.3554 -0.8729 0.2290
-1.5037 -0.8742 0.2912
-1.0361 -0.8425 0.0510
-0.7221 -0.8939 0.2688
-1.6852 -0.8315 0.3353
-1.1898 -0.9604 0.1491
-1.2188 -0.9297 0.1228
-1.1932 -0.9106 0.0688
-1.2701 -0.8979 0.1172
-1.7866 -0.8274 0.4151
-1.4475 -0.8896 0.2417
-1.2651 -0.8718 0.3268
-0.7980 -0.8656 0.2104
-1.2725 -0.8553 0.6309
-0.6956 -0.8816 0.2182
-1.4077 -0.9264 0.4091
-0.5473 -0.9169 0.1516
-1.4227 -0.8351 1.6299
-0.6337 -0.3883 0.5299
-0.5486 -0.8033 0.5677
-0.8226 -0.3317 0.4927
-0.7118 -0.4533 0.4547
-0.6347 -0.8521 0.4826
-1.4069 -0.8719 0.9207
-1.0760 -0.7907 0.5903
-1.0989 -0.8958 0.5426
-1.2395 -0.8241 0.5180
-0.6069 -0.8760 0.0935
-1.6349 -0.6645 0.7017
-1.6237 -0.6477 0.6155
-1.1250 -0.8388 0.2853
-1.7287 -0.8319 0.6460
-1.6478 -0.6909 0.5349
-1.6831 -0.7533 0.5124
-1.5691 -0.8429 0.3336
-1.6065 -0.9333 0.2378
-1.5146 -0.8313 0.8649
-1.2580 -0.8698 0.2008
-0.3542 -1.0255 0.8732
-1.0464 -0.8621 0.0156
-1.1934 -0.9441 0.1146
-1.8251 -0.6701 0.4344
-2.0052 -1.0928 1.8287
-0.7038 -0.4405 0.4679
-1.7753 -0.8809 0.4309
-1.7868 -0.6015 0.5445
-1.8611 -0.8915 1.4320
-0.5084 -0.9133 0.5061
-0.8533 -0.2394 0.3908
-0.9781 -0.9350 0.1879
-0.5701 -0.8488 0.3724
-0.7463 -0.9118 0.1011
-1.7029 -0.5774 0.6040
-1.7368 -0.5554 0.6291
-0.9317 -1.1121 0.6474
-1.7390 -0.9180 0.6687
-1.3401 -0.8625 0.8075
-1.5412 -0.8181 0.5442
-1.6246 -0.8451 0.6202
-0.6597 -0.9034 0.1421
-1.9536 -1.0127 1.1767
-0.7468 -0.8874 0.2618
-1.2428 -0.8916 0.6945
-1.5146 -0.8064 0.9122
-1.5607 -0.7445 0.6724
-1.5478 -0.7709 0.6799
-0.9590 -0.8334 0.4718
-1.6589 -0.5806 0.7184
-1.5828 -0.8083 0.8482
-0.7432 -0.9296 0.2636
-0.9650 -0.9640 0.4678
-0.8642 -0.9297 0.3854
-0.7186 -0.9307 -0.0445
-1.2210 -0.9678 0.2450
-1.3835 -0.8904 0.8132
-0.8306 -0.8116 0.2081
-0.6501 -0.8856 0.5108
-1.3162 -0.8434 0.3446
-0.9989 -0.8685 0.3076
-0.8536 -0.7764 0.5441
-1.1757 -0.8740 0.7828
-1.1029 -0.9120 0.6403
-1.6420 -0.8521 1.5889
-1.5848 -0.9279 1.5928
-1.7432 -0.8849 1.4266
-0.7727 -0.4753 0.4993
-1.8466 -0.8738 1.4327
-1.7725 -0.9473 1.2252
-1.4014 -0.9553 0.9782
-1.8022 -0.8934 1.1804
-1.7486 -0.8955 1.1090
-1.4963 -0.7965 0.8344
-1.2413 -0.8660 0.5923
-0.7285 -0.8955 0.2190
-1.7418 -0.5764 0.6223
-1.6077 -0.8912 0.5453
-0.8440 -0.8651 0.1563
-1.7900 -0.6431 0.5794
-1.5379 -0.8771 0.4374
-1.1526 -0.8759 0.2928
-0.7025 -0.9143 0.0380
-0.7700 -0.7905 0.0330
-1.9358 -0.9119 0.4566
-0.6958 -0.3088 0.4473
-0.7874 -0.8911 0.4041
-1.5211 -0.6078 0.5930
-1.8239 -0.7358 0.4676
-1.9547 -0.8453 1.0252
-1.4920 -0.8149 1.5215
-1.9217 -0.8814 1.5068
-1.7578 -0.8933 1.6352
-1.9511 -0.6617 0.5289
-1.9500 -0.6983 0.5452
-1.7562 -0.7452 0.4863
-1.7986 -0.6676 0.5298
-1.5929 -0.6224 0.6461
-0.7304 -0.4831 0.4425
-1.5073 -0.7855 0.6851
-1.5006 -0.7743 0.7495
-0.9579 -0.8506 0.4512
-1.7494 -0.8675 1.0526
-1.5703 -0.8714 0.6012
-1.0557 -0.8651 0.7034
-1.7700 -0.4861 0.3753
-1.9598 -0.6550 0.4778
-1.8680 -0.5658 0.4575
-1.1642 -0.8607 0.1565
-0.8481 -1.4538 0.5827
-0.8807 -0.8650 0.3722
-1.8881 -0.6503 0.5455
-1.8712 -0.7504 0.8735
-1.7982 -0.5271 0.6356
-0.7029 -0.8646 0.1021
-0.9780 -0.1896 0.4820
-1.1196 -0.9183 0.3549
-1.4873 -0.8136 0.5150
-1.9353 -0.7689 0.4437
-0.7960 -0.8957 0.1159
-1.5819 -0.9306 0.4619
-0.6339 -0.9059 0.3365
-1.5434 -0.8713 1.5792
-0.9279 -0.9147 0.2094
-1.3427 -0.8367 1.4389
-1.3066 -0.9958 1.2480
-0.7407 -0.4853 0.4887
-1.7241 -0.9166 1.3516
-1.7954 -0.8955 1.3333
-1.6707 -0.9104 1.2602
-1.6837 -0.8925 1.0663
-1.4541 -0.7216 0.8492
-1.3604 -0.9242 0.8503
-1.4816 -0.8753 0.8332
-0.8184 -0.9104 0.2304
-0.8446 -0.9038 0.1042
-0.7874 -0.8758 -0.1067
-0.7806 -0.3340 0.4757
-2.1191 -0.9396 1.8322
-1.3902 -0.8959 0.4800
-1.6246 -0.7010 0.5047
-1.2117 -0.8644 -0.1030
-1.5669 -0.6380 0.6546
-1.5549 -0.7761 0.7075
-0.9391 -0.7679 0.5271
-1.8757 -0.8436 1.1498
-1.0348 -0.9278 0.9498
-1.0290 -1.0123 0.9606
-0.7307 -0.4823 0.4708
-1.8762 -0.5973 0.5281
-1.3630 -0.9005 0.3040
-0.8292 -0.8347 -0.2266
-0.9055 -0.9324 -0.1786
-1.0995 -1.0254 0.9546
-1.5296 -0.8908 0.0253
-1.1321 -0.8408 0.3158
-0.5400 -0.8490 0.4530
-1.6771 -0.8356 0.4250
-1.0561 -0.8810 0.3575
-1.6220 -0.6945 0.6265
-0.5520 -1.0203 0.4893
-0.6936 -0.8487 0.2429
-0.7601 -1.0202 0.2845
-1.0650 -0.9204 0.0810
-1.9808 -0.5783 0.3620
-0.7301 -1.0017 0.5271
-1.6180 -0.6922 0.7274
-0.7014 -0.9978 0.3154
-1.8026 -0.4608 0.4219
-1.0507 -0.8836 0.0069
-0.9357 -0.0753 0.0088
-1.1671 -0.9206 0.1073
-1.3341 -0.8510 0.6782
-0.7470 -0.9856 0.3784
-1.2256 -0.8130 0.1260
-0.8659 -0.9436 0.1174
-1.1436 -0.9495 0.2459
-0.7644 -0.9028 0.0334
-1.3234 -0.8106 0.8441
-0.7770 -1.0024 0.5965
-1.0798 -0.9494 0.2588
-1.5457 -0.8935 0.2899
-1.1337 -0.9346 0.2945
-0.7763 -0.8865 -0.0249
-1.7093 -0.9308 1.1841
-0.8151 -0.9461 -0.1319
-1.3738 -0.9767 1.0726
-1.1687 -0.8141 0.1655
-1.1249 -0.8990 0.3489
-1.2493 -0.9192 0.2113
-0.9793 -0.9099 0.1407
-0.6148 -0.9200 0.4668
-1.0162 -0.9479 0.2351
-1.7246 -0.8567 0.4530
-1.5000 -0.8644 0.4139
-1.0173 -0.9161 0.5915
-1.6444 -0.7135 0.7375
-0.5000 -0.9868 0.4049
-1.0373 -0.9345 0.6759
-1.5426 -0.9100 0.9038
-1.5689 -0.7387 0.7926
-1.0752 -0.9064 0.4547
-0.7625 -0.9039 0.1614
-1.4059 -0.9147 0.4434
-0.9916 -0.9757 0.2292
-1.7105 -0.6511 0.4908
-0.7710 -0.9308 -0.0273
-1.6260 -0.9178 0.2656
-1.6414 -1.0105 0.2316
-1.5932 -0.8607 0.1174
-1.5528 -0.7989 0.1034
-1.0053 -0.9187 -0.2519
-1.2642 -0.9070 -0.1387
-1.5195 -0.8471 0.0232
-1.2970 0.0378 0.0610
-1.5302 -0.9225 0.2037
-0.6124 -0.6374 0.3544
-0.6406 -0.7044 0.3918
-1.7145 -0.7309 0.4938
-0.7197 -0.7708 0.1204
-1.2013 -0.8802 0.4069
-1.5476 -0.8184 0.6555
-1.5207 -0.6562 0.6900
-0.9314 -0.7862 0.5083
-1.6889 -0.5885 0.7260
-1.4468 -0.8301 0.0313
-1.7434 -0.6476 0.7589
-0.9128 -0.8634 -0.1069
-1.3580 -0.9155 0.0700
-0.9170 -0.8900 -0.0700
-1.1194 -0.9162 0.3860
-0.8571 -0.8628 -0.0344
-0.7636 -0.7490 0.1919
-1.0037 -0.8752 0.2582
-1.4523 -0.9481 1.0262
-0.9107 -0.8135 -0.0119
-0.6817 -0.7041 0.2479
-1.3796 -0.8477 -0.0871
-1.4416 -0.9072 0.8292
-1.5281 -0.2884 0.5292
-1.0684 -0.8585 -0.1490
-1.7674 -0.6494 0.8278
-1.6624 -0.5603 0.5786
-0.7398 -0.8003 0.1658
-0.8218 -0.8026 0.1454
-0.8496 -0.8847 0.1528
-0.8522 -0.8535 0.0909
-1.2567 -0.9309 0.2766
-0.9983 -0.1892 -0.0666
-1.2412 -0.8895 -0.1018
-1.3937 -0.8631 -0.0587
-2.0549 -0.7770 0.5781
-1.9838 -0.7100 0.3290
-1.0072 -0.8482 -0.3694
-1.0954 -0.8310 -0.3306
-1.3096 -0.9219 -0.3094
-0.9684 -0.9537 -0.4019
-1.6952 -0.7604 -0.0665
-0.9570 -0.5718 -0.2591
-1.3333 -0.8859 -0.2089
-1.0058 -0.8565 -0.2485
-1.0622 -0.9399 0.7389
-1.2115 -0.7994 -0.0607
-1.3609 -0.8892 0.2066
-0.8813 -0.9272 0.5221
-1.2177 -0.9232 0.7002
-1.7003 -0.7103 0.4969
-0.8571 -0.9583 0.5079
-0.8428 -0.9272 0.4821
-0.9303 -0.9272 0.1529
-1.7329 -0.7127 0.4929
-1.7590 -0.6601 0.4948
-0.9765 -0.9096 0.5204
-1.5824 -0.6443 0.7032
-1.6519 -0.9179 0.6143
-0.7068 -0.7864 0.3406
-1.7056 -0.4490 0.6064
-1.6182 -0.8594 0.6147
-1.5136 -0.7932 0.6804
-1.5725 -0.7490 0.6221
-0.8812 -0.9583 0.3598
-1.0860 -0.8390 -0.2678
-0.7834 -0.8924 0.3987
-1.6560 -0.9059 -0.1067
-1.3357 -0.8725 -0.1035
-1.5147 -0.8477 0.5467
-1.5590 -0.8938 0.1965
-1.1281 -0.8977 0.3217
-0.9610 -0.9479 0.0964
-1.3086 -0.8549 -0.3359
-1.3195 -0.8594 0.3231
-1.1678 -0.8783 0.2464
-1.7322 -0.8760 -0.1824
-1.7888 -0.4692 0.3733
-1.0414 -0.8189 0.2760
-1.3972 -0.8644 0.7579
-1.7496 -0.9182 0.1193
-1.2700 -0.8361 0.3413
-1.1352 -0.9282 0.5987
-1.6094 -0.6934 0.5531
-0.8436 -0.8361 0.2301
-1.6988 -0.7544 0.4547
-0.9648 -0.8845 -0.1104
-1.1046 -0.9084 -0.0775
-0.8333 -1.0344 -0.2358
-0.7871 -0.9498 -0.2404
-1.1574 -0.8957 -0.3066
-1.2019 -0.9438 -0.3450
-1.7278 -0.8703 -0.1326
-1.7484 -0.8081 0.3100
-1.7642 -0.8813 -0.1170
-0.8471 -0.6753 0.4416
-1.4502 -0.9159 0.8280
-0.9436 -1.0237 0.5174
-1.2180 -0.8585 -0.1103
-1.2654 -0.8999 -0.1010
-0.9850 -0.7766 -0.2951
-1.1215 -0.9083 -0.2785
-1.2623 -0.8530 -0.0875
-1.1624 -0.8789 0.0556
-1.6782 -0.9119 0.3247
-1.5218 -0.9276 0.2966
-1.3558 -0.9192 0.2506
-0.9759 -0.8910 0.5902
-1.3188 -0.8632 0.2860
-1.2961 -0.9022 0.7595
-0.9125 -0.8669 0.5190
-1.1479 0.1790 0.1659
-1.2300 -0.8314 0.2885
-1.1387 -0.8921 0.5942
-1.6875 -0.6920 0.5145
-1.6997 -0.6829 0.5290
-1.7003 -0.6861 0.5539
-1.1007 -0.8910 0.5284
-0.9436 -0.9938 0.4805
-1.7225 -0.5575 0.6846
-1.5978 -0.6293 0.6482
-1.6393 -0.7808 0.6058
-1.5822 -0.7323 0.6675
-1.5893 -0.6757 0.5980
-1.4244 -0.8723 -0.0311
-1.1057 -0.8394 -0.1811
-1.1920 -0.9049 0.0260
-1.3478 -0.8015 0.1544
-1.1494 -0.8126 0.1890
-1.3395 -0.9321 0.2425
-1.5071 -0.8950 -0.2260
-1.3575 -0.8099 0.3728
-1.3985 -0.9103 0.4039
-1.1607 -0.9039 -0.3857
-0.9737 -0.7761 -0.4034
-0.8636 -0.8116 0.4379
-1.3791 -0.9059 -0.3197
-1.7054 -0.9023 0.0492
-0.9729 -0.8261 0.6886
-1.4458 -0.8988 -0.0487
-0.9461 -0.8637 0.6059
-1.3147 -0.8797 0.5971
-0.8143 -0.8363 0.5436
-1.2272 -0.8831 -0.2138
-1.0551 -0.9552 0.5870
-1.6989 -0.8577 0.0388
-1.1318 -0.8776 0.2352
-1.6160 -0.8555 -0.0645
-0.6591 -0.7943 0.3561
-1.1579 -0.8933 0.7562
-1.1199 -0.8825 0.5312
-1.4763 -0.8678 -0.2179
-1.0190 -0.7544 -0.4022
-1.3325 -0.9292 -0.1785
-0.9859 -0.9354 0.3610
-1.4746 -0.8566 -0.0422
-1.3824 -0.8400 0.4183
-1.1480 -0.8798 0.2392
-1.6268 -0.8876 0.3435
-1.2147 -0.9707 -0.0710
-1.2773 -0.9371 -0.2569
-1.2254 -0.8538 -0.3218
-1.6640 -0.7174 -0.1708
-1.5379 -0.8722 -0.2592
-1.4069 -0.7968 -0.2388
-1.2331 -0.8747 -0.3706
-1.0943 -0.8645 -0.4057
-1.0443 -0.8518 -0.4180
-1.7012 -0.9257 0.3507
-1.3363 -0.8720 0.8297
-2.0857 -0.8242 0.6142
-1.5714 -0.7347 0.7373
-1.6693 -0.5946 0.7107
-1.7910 -0.6279 0.6592
-1.8974 -0.7393 0.4835
-1.7279 -0.9218 0.4871
-1.7926 -0.6866 0.7672
-1.7575 -0.6055 0.6411
-1.6804 -0.7627 0.5167
-2.0613 -0.9073 0.5006
-1.6780 -0.6047 0.7018
-1.3990 -0.9337 0.4959
-1.7662 -0.8784 -0.1486
-1.0677 -0.9649 0.7106
-1.4991 -0.8691 0.8954
-1.8061 -0.6556 0.5560
-1.6507 -0.5432 0.6306
-1.4787 -0.8317 -0.0987
-1.5252 -0.9099 -0.2918
-1.1583 -0.8458 -0.3980
-1.4294 -0.8733 -0.0630
-1.5101 -0.9260 -0.1963
-1.4946 -0.9077 0.4631
-1.4623 -0.8856 -0.1202
-1.0023 -0.9337 0.6397
-1.8152 -0.8695 -0.0899
-1.2132 -0.9224 -0.1645
-1.4948 -0.8498 0.1498
-1.5593 -0.9333 0.2621
-1.5081 -0.8805 -0.1354
-1.1428 -0.8779 -0.1821
-1.5562 -0.9507 0.4488
-1.2616 -0.9694 0.6596
-1.5110 -0.8679 0.7287
-1.7104 -0.6513 0.5186
-1.8307 -0.6579 0.5349
-1.8234 -0.9131 0.4552
-1.1053 -0.9217 -0.0765
-0.9732 -0.8772 -0.1844
-1.6322 -0.9095 0.0201
-1.2810 -0.9110 -0.3014
-1.2774 -0.7899 -0.3065
-1.3459 -0.8807 -0.3697
-1.6070 -0.6194 0.6825
-1.8250 -0.7597 0.4656
-0.9667 -0.9112 0.0986
-1.8143 -0.6869 0.8236
-1.1569 -0.8338 -0.3675
-1.5502 -0.6747 0.6612
-1.5259 -0.8196 0.7026
-1.6155 -0.6667 0.6747
-1.5554 -0.8208 0.5476
-1.3596 -0.8517 0.4547
-1.6516 -0.8702 -0.2799
-1.8477 -0.6287 0.6918
-1.3311 -0.8374 0.3331
-1.5220 -0.8629 -0.3066
-1.4862 -0.8920 -0.3018
-1.6983 -0.8816 0.4186
-1.5171 -0.8648 0.3277
-1.3297 -0.8291 -0.3213
-1.9693 -0.7377 0.5279
-1.5872 -0.9126 -0.2540
-1.5499 -0.9032 0.2992
-1.4780 -0.8637 -0.2433
-1.3315 -0.9076 -0.2913
-1.3870 -0.8791 0.7983
-1.4812 -0.8918 0.1522
-1.8092 -0.8565 0.2369
-1.7380 -0.9008 0.2056
-1.8476 -0.8631 -0.1014
-1.4164 -0.8937 0.0633
-1.1427 -0.8887 -0.3286
-1.7662 -0.8766 -0.1173
-1.5905 -0.8411 0.1119
-1.8490 -0.8761 -0.0711
-1.6994 -0.8920 0.1031
-1.3702 -0.8942 -0.2101
-1.1509 -0.8570 -0.2683
-1.3815 -0.8777 -0.1933
-1.4983 -0.8817 -0.1566
-1.7757 -0.8226 0.0670
-1.7320 -0.8823 0.0378
-1.5049 -0.8421 -0.0417
-1.2071 -0.9583 -0.1878
-1.7510 -0.8734 0.0214
-1.6389 -0.9174 -0.0323
-1.3626 -0.8178 -0.1105
-1.3425 -0.8854 -0.1517
-1.2294 -0.9314 -0.2209
-1.1238 -0.9443 0.3397
-1.4648 -0.8621 -0.0939
-1.1025 -0.8444 -0.1796
-1.7463 -0.9371 -0.0992
-1.4366 -0.7899 -0.3272
-1.1246 -0.9177 0.6182
-1.5794 -0.9308 0.5944
-1.5375 -0.8500 0.4153
-1.8282 -0.6644 0.4821
-1.9042 -0.8499 0.4376
-1.5489 -0.8523 0.2475
-1.8350 -0.9248 0.2836
-1.5623 -0.8420 0.0663
-1.2044 -0.8837 -0.1084
-1.1286 -0.8156 -0.2374
-1.2218 -0.9207 -0.2631
-1.8170 -0.9085 -0.0961
-1.3533 -0.9088 -0.2451
-1.6584 -0.8892 0.3641
-1.6866 -0.8253 0.1802
-1.3621 -0.8759 -0.1930
-1.7662 -0.6115 0.5594
-1.9581 -0.6883 0.6617
-1.3866 -0.8924 -0.1591
-1.7238 -0.8431 -0.2076
-1.4535 -1.9512 -0.1302
-1.9690 -0.1524 0.2323
-2.0200 -0.1740 0.0911
-2.3916 -0.4540 -0.0396
-1.8932 -0.1723 -0.0603
-1.5656 -0.8437 -0.3460
-2.0124 -0.1530 -0.0809
-1.3293 -0.7450 -0.4375
-1.7735 -0.7333 0.4897
-1.9522 -0.1674 0.3131
-1.6175 -0.8361 0.3048
-1.8758 -0.8777 0.3096
-1.9364 -0.8702 -0.1066
-2.0488 -0.1454 -0.1181
-1.3606 -0.1706 -0.1945
-1.2719 -0.9216 0.5441
-1.8002 -0.6952 0.4345
-1.5306 -0.8807 0.5979
-1.6453 -0.5669 0.4933
-1.5925 -0.8441 0.5449
-1.7847 -0.6132 0.5327
-1.8524 -0.1228 0.3477
-1.7980 -0.6558 0.4983
-1.7208 -0.9012 0.4878
-1.9503 -0.1721 0.3261
-1.5522 -0.9310 0.3772
-1.9964 -0.1624 0.2274
-1.9983 -0.1650 0.2033
-1.3856 -0.8565 0.1133
-1.7874 -0.8571 0.1415
-2.0179 -0.1629 0.1440
-1.8135 -0.8560 0.0883
-1.4990 -0.9500 0.0036
-1.4711 -0.8970 -0.0183
-1.4938 -0.9164 -0.0189
-1.5107 -0.9348 -0.0384
-1.4417 -0.9262 -0.0524
-2.0462 -0.1706 0.0749
-1.9726 -0.1630 0.0712
-2.0008 -0.1410 0.0391
-1.4513 -0.1094 -0.0179
-1.8655 -0.8567 -0.0877
-1.6328 -0.8436 -0.1061
-1.4848 -0.8453 -0.1228
-1.6347 -0.8353 -0.1406
-1.4371 -0.9116 -0.1916
-2.0270 -0.1639 -0.0206
-1.9184 -0.1658 -0.0598
-1.9332 -0.1728 -0.0568
-1.5301 -0.8626 -0.2407
-2.0072 -0.1660 -0.0628
-2.0175 -0.1610 -0.0673
-1.9607 -0.8552 -0.2509
-1.5218 -0.8925 -0.2914
-1.9767 -0.1590 -0.1004
-1.5243 -0.8873 -0.3186
-2.0362 -0.1551 -0.1023
-1.6383 -0.8825 -0.3247
-1.9678 -0.8537 -0.3098
-1.9876 -0.1654 -0.1489
-1.9471 -0.1641 -0.1495
-1.7404 -0.8775 -0.3832
-2.0424 -0.1546 -0.1456
-2.0322 -0.1628 -0.1404
-1.6515 -0.8674 -0.4166
-2.0196 -0.1338 -0.1644
-2.0400 -0.1747 -0.1699
-2.0416 -0.1642 -0.2058
-1.3705 -0.8343 -0.4578
-1.6821 -0.8939 -0.4928
-1.5645 -0.8920 0.5724
-1.6984 -0.5891 0.4639
-1.9012 -0.1273 0.3605
-1.5159 -0.9262 0.4023
-1.6092 -0.8637 0.2548
-2.0784 -0.1804 0.2177
-2.0696 -0.1836 0.1357
-2.1399 -0.1701 -0.0232
-2.0986 -0.1678 -0.0323
-1.4862 -0.8827 -0.2891
-1.5369 -0.8445 0.4845
-1.9882 -0.1841 0.3398
-1.7271 -0.7020 0.4521
-2.1461 -0.1651 0.3496
-2.1445 -0.1646 0.3206
-2.2670 -0.1921 0.2591
-2.1959 -0.1721 0.2342
-2.1563 -0.1865 0.2316
-2.1892 -0.1870 0.2194
-1.9879 -0.1745 0.1926
-2.1480 -0.1714 -0.2888
-2.0841 -0.1732 -0.2889
-1.9315 -0.1628 0.1327
-2.1255 -0.1721 -0.2871
-2.2310 -0.1906 0.1134
-2.0343 -0.1694 0.1143
-2.2170 -0.1821 0.0876
-2.2168 -0.1913 0.0817
-1.9851 -0.1676 0.0760
-2.2345 -0.1703 -0.2822
-2.2615 -0.1685 -0.2667
-1.9338 -0.1640 0.0372
-2.2090 -0.1569 0.0479
-2.0837 -0.1742 -0.2469
-2.2899 -0.1661 -0.2618
-2.1397 -0.1711 -0.2292
-2.3113 -0.1824 -0.0010
-2.2248 -0.1707 -0.2554
-2.2304 -0.1880 -0.0342
-2.2072 -0.2019 -0.0384
-2.1915 -0.1731 -0.0356
-2.3003 -0.1807 -0.0442
-2.1922 -0.1740 -0.0421
-2.0545 -0.1815 -0.0631
-2.0170 -0.1815 -0.0607
-2.0995 -0.1833 -0.0772
-2.0117 -0.1758 -0.1832
-2.1493 -0.1714 -0.1076
-2.2802 -0.1702 -0.2188
-2.2431 -0.1798 -0.1231
-2.2362 -0.1721 -0.1395
-2.0399 -0.1739 -0.1666
-1.9271 -0.1649 0.1000
-2.2274 -0.1936 0.1564
-2.1808 -0.1725 0.2493
-2.1305 -0.1679 0.3200
-2.2041 -0.1732 0.3056
-2.0301 -0.1754 0.2363
-1.5156 -0.8647 0.1864
-2.2626 -0.1937 0.1041
-2.0541 -0.1812 0.0752
-2.2958 -0.2037 -0.0241
-2.0950 -0.1893 0.2502
-1.7678 -0.7765 0.4526
-2.2157 -0.1822 0.0987
-2.3379 -0.1892 0.3943
-2.0063 -0.1828 0.3182
-2.2741 -0.1773 -0.2439
-2.3330 -0.1590 -0.2712
-2.0685 -0.1765 -0.2225
-2.3117 -0.1734 -0.2426
-2.0134 -0.1599 -0.1628
-2.1566 -0.1655 0.3137
-2.0105 -0.1828 0.2885
-2.2529 -0.1776 -0.1813
-2.2547 -0.1683 -0.1339
-2.0846 -0.1747 -0.1126
-2.1797 -0.1615 0.2945
-2.0282 -0.1656 0.0251
-2.0047 -0.1695 0.0461
-2.1889 -0.1628 0.1247
-2.1959 -0.1798 0.1034
-2.2355 -0.1782 0.1121
-2.0297 -0.1679 0.2252
-2.0165 -0.1715 0.1961
-2.1518 -0.1585 0.1974
-1.9717 -0.1806 0.3069
-1.9978 -0.1686 0.1769
-2.3214 -0.1786 0.1789
-2.1582 -0.1695 0.3260
-2.1255 -0.1807 0.1760
-2.0837 -0.1748 -0.2179
-1.9651 -0.1659 0.3026
-2.0117 -0.1644 0.2229
-2.1318 -0.1701 0.3203
-1.9907 -0.1645 0.1395
-1.9861 -0.1763 0.2916
-2.0742 -0.1746 -0.1527
-2.2055 -0.1754 -0.1638
-1.9706 -0.1693 -0.1157
-2.0106 -0.1780 0.2632
-2.2911 -0.1747 -0.1212
-2.1610 -0.1771 -0.1002
-2.0299 -0.1755 0.0428
-2.1756 -0.1905 -0.0460
-2.0601 -0.1692 -0.0123
-2.2833 -0.1839 -0.0090
-2.0172 -0.1787 0.2076
-2.3446 -0.1695 0.0028
-2.0041 -0.1700 -0.0305
-1.9989 -0.1637 0.1847
-1.9368 -0.1751 0.0799
-2.2924 -0.1513 0.2400
-2.1373 -0.1799 0.1464
-2.2681 -0.1844 -0.2240
-2.3466 -0.1894 0.4111
-2.2307 -0.1858 -0.0384
-2.0816 -0.1704 -0.0201
-2.0196 -0.1737 0.0893
-2.4319 -0.1807 0.0356
-2.1291 -0.1882 0.4010
-2.1413 -0.1881 0.3820
-1.9769 -0.1735 0.3544
-2.3690 -0.1972 0.3276
-2.3219 -0.1579 0.4159
-2.4130 -0.1920 -0.0006
-2.3363 -0.1773 -0.0035
-2.3791 -0.1811 -0.0155
-2.3876 -0.1770 -0.0265
-2.0590 -0.1660 0.1001
-2.3458 -0.1753 -0.1020
-2.3592 -0.1733 0.2694
-2.3815 -0.1755 -0.2041
-2.2423 -0.1770 0.3504
-2.3451 -0.1558 0.3289
-2.3627 -0.1786 0.1151
-2.2077 -0.1651 0.0696
-1.9808 -0.1726 -0.0477
-1.9109 -0.1865 -0.0395
-2.2759 -0.1913 -0.0979
-2.2757 -0.1823 -0.1352
-2.0214 -0.1612 -0.1306
-2.3451 -0.1535 -0.2423
-2.2707 -0.1778 -0.1937
-1.9603 -0.1528 0.3407
-2.3300 -0.1690 0.3754
-2.3973 -0.1717 -0.0977
-2.4436 -0.1707 0.0709
-2.3686 -0.1868 0.1348
-2.3887 -0.1865 0.1356
-2.4062 -0.2163 0.1697
-2.4152 -0.1600 0.2541
-2.0583 -0.1734 -0.2023
-2.3984 -0.1864 0.1979
-2.3969 -0.1800 0.3031
-2.0199 -0.1794 0.0468
-2.2125 -0.1766 0.0759
-2.1536 -0.1739 0.1383
-2.0518 -0.1725 0.0668
-2.3978 -0.1949 0.1479
-2.0101 -0.1733 0.0763
-2.3988 -0.2020 0.0092
-2.3487 -0.1753 -0.0810
-1.8665 -0.1509 0.2875
-2.4205 -0.1771 -0.1702
-2.1856 -0.1691 -0.1600
-2.1494 -0.1724 0.3753
-2.1578 -0.1788 -0.2387
-2.4192 -0.1516 -0.2329
-2.4932 -0.1912 -0.2467
-2.5220 -0.1838 -0.2405
-2.1579 -0.1680 0.3455
-2.4996 -0.1745 -0.1830
-2.1683 -0.1686 -0.0985
-2.4202 -0.1851 -0.1254
-2.3773 -0.1467 0.3224
-2.2395 -0.1774 -0.0103
-2.2139 -0.1688 0.0052
-2.5131 -0.1881 0.0318
-2.4750 -0.1803 0.2795
-2.2167 -0.1817 0.2308
-2.3400 -0.1958 0.2110
-2.0330 -0.1825 0.2418
-2.3678 -0.1945 0.1084
-2.1850 -0.1677 0.0809
-2.3761 -0.1350 0.0601
-2.1700 -0.1594 0.0132
-2.1430 -0.1544 -0.0176
-2.3589 -0.1743 -0.0352
-2.3462 -0.1816 -0.0478
-2.4711 -0.2424 -0.1617
-2.1908 -0.1704 -0.0708
-2.0322 -0.1829 0.3540
-2.0260 -0.1667 -0.0562
-2.3896 -0.1824 -0.1337
-2.3183 -0.1726 0.3473
-1.9972 -0.1683 -0.0739
-1.9966 -0.1815 0.1390
-2.0173 -0.1774 -0.1137
-1.9711 -0.1755 0.2210
-2.0188 -0.1743 -0.1278
-1.9639 -0.1722 0.2285
-2.1858 -0.1823 0.4048
-1.9181 -0.1635 0.3064
-2.0396 -0.1622 -0.1162
-2.0547 -0.1663 -0.1556
-2.3605 -0.1685 0.3760
-2.3808 -0.1597 -0.1167
-2.2039 -0.1714 -0.1392
-2.4465 -0.1928 0.2824
-2.2111 -0.1810 -0.1751
-2.1169 -0.1829 -0.0194
-2.0403 -0.1736 -0.1191
-2.3564 -0.1909 0.3635
-2.2483 -0.1715 -0.1025
-1.9283 -0.1702 0.3494
-2.3092 -0.1713 0.1714
-2.3728 -0.1564 0.1031
-2.2031 -0.1671 -0.0278
-1.9528 -0.1546 0.1893
-1.9650 -0.1655 0.0002
-2.2492 -0.1697 -0.1759
-1.9101 -0.1689 -0.1006
-2.3914 -0.1748 0.4500
-2.1837 -0.1611 0.3791
-2.1639 -0.1649 0.2953
-2.3663 -0.1661 0.2720
-2.0811 -0.1749 0.2109
-2.2059 -0.1664 0.2236
-1.9050 -0.1722 0.1804
-2.1986 -0.1586 0.1378
-2.0072 -0.1596 0.0249
-2.1132 -0.1849 0.0028
-2.4383 -0.1549 -0.0422
-1.9645 -0.1717 -0.0487
-2.3403 -0.1821 0.5008
-2.3833 -0.1574 0.4893
-1.9351 -0.1699 0.3510
-2.1962 -0.1636 0.4171
-2.3492 -0.1722 0.4338
-1.9395 -0.1650 0.3275
-1.9710 -0.1666 0.2887
-1.8955 -0.1494 0.1887
-2.2573 -0.1669 0.2241
-2.0629 -0.1788 0.1173
-2.4057 -0.1966 0.1164
-2.0140 -0.1727 0.0262
-2.2238 -0.1705 -0.0137
-2.3410 -0.1718 0.4882
-2.2046 -0.1705 0.1556
-2.3687 -0.1520 0.3247
-2.3553 -0.1731 0.1120
-2.3433 -0.1624 0.3505
-2.0634 -0.1718 -0.2648
-2.1417 -0.1755 -0.2442
-2.4704 -0.1845 0.1946
-2.4146 -0.1854 0.2554
-2.0218 -0.1877 0.3239
-2.3556 -0.2013 0.3075
-2.4592 -0.1648 -0.1986
-2.0474 -0.1755 -0.0302
-1.8926 -0.1711 0.3182
-2.1869 -0.1681 0.3366
-2.0658 -0.1636 0.2160
-2.4842 -0.1822 -0.2486
-2.0620 -0.1885 0.3894
-2.3672 -0.1746 0.4140
-1.9624 -0.1684 0.1062
-2.3849 -0.1620 0.0837
-2.1958 -0.1590 0.0505
-1.9984 -0.1808 -0.0482
-2.2198 -0.1746 -0.1133
-2.2194 -0.1945 0.0984
-2.2129 -0.1583 0.4704
-2.0029 -0.1741 0.3329
-2.1277 -0.1626 0.3543
-2.1235 -0.1639 0.3326
-2.1765 -0.1715 0.3205
-2.3498 -0.1648 0.3391
-2.0142 -0.1741 0.3444
-2.0335 -0.1674 0.2648
-2.1910 -0.1642 -0.1451
-1.9459 -0.1688 0.1784
-2.1764 -0.1719 0.2165
-1.9985 -0.1703 0.1613
-1.8945 -0.1706 0.1142
-2.3763 -0.1521 0.1694
-1.9645 -0.1642 -0.0614
-2.3947 -0.2099 0.1519
-1.9379 -0.1715 0.0887
-2.3476 -0.1700 0.1256
-1.9801 -0.1717 0.0859
-2.1612 -0.1604 0.0954
-2.3898 -0.1515 -0.0150
-2.2095 -0.1603 0.0756
-2.4265 -0.1768 0.0040
-2.3967 -0.1517 0.0190
-1.9116 -0.1613 0.3198
-1.9349 -0.1704 0.3008
-2.0589 -0.1715 0.3186
-2.0026 -0.1738 0.0331
-2.4751 -0.2103 0.0780
-1.8756 -0.1841 0.2497
-1.9041 -0.1766 0.0770
-1.9158 -0.1732 0.3775
-2.3052 -0.1600 -0.0568
-1.8606 -0.1796 0.3621
-2.3941 -0.1555 0.1704
-2.0792 -0.1623 0.1698
-1.9091 -0.1708 0.1528
-2.1816 -0.1504 0.2064
-1.9507 -0.1759 0.2341
-1.8683 -0.1449 0.3117
-2.1904 -0.1710 0.4411
-2.1679 -0.1678 0.3603
-2.2306 -0.1717 0.2549
-2.3978 -0.1893 0.2484
-2.0101 -0.1853 0.1436
-1.9616 -0.1671 0.1289
-2.2020 -0.1749 0.2127
-2.1700 -0.1823 0.4814
-2.2099 -0.1887 0.4922
-2.2585 -0.1736 0.0066
-2.1687 -0.1638 0.1065
-2.2461 -0.1539 0.4718
-2.0455 -0.1768 -0.1326
-2.2698 -0.1535 0.3985
-2.2231 -0.1668 -0.1150
-2.3542 -0.1796 -0.0825
-2.0730 -0.1695 -0.0366
-2.1687 -0.1711 0.1146
-2.4509 -0.2020 0.2178
-2.1835 -0.1686 0.1975
-2.3848 -0.1614 0.2433
-2.2751 -0.1616 0.4251
-1.9201 -0.1612 0.1852
-2.3957 -0.1640 0.3129
-2.3864 -0.1645 0.2696
-1.9664 -0.1687 0.0523
-2.0464 -0.1747 0.4122
-2.0806 -0.1766 0.0225
-2.1103 -0.1667 -0.0998
-2.3959 -0.1631 0.0351
-2.1546 -0.1766 0.4629
-2.2900 -0.1490 -0.0762
-2.1690 -0.1655 -0.0152
-2.2253 -0.1669 -0.0236
-2.1798 -0.1716 -0.0650
-1.9565 -0.1868 0.3698
-2.2154 -0.1892 -0.0488
-1.9114 -0.1645 -0.0741
-1.9379 -0.1676 0.0149
-2.1080 -0.1612 0.4546
-1.9618 -0.1939 0.3924
-2.0975 -0.1614 0.3246
-1.9381 -0.1841 0.2699
-2.3717 -0.1907 0.3937
-1.9164 -0.1522 0.2347
-2.1252 -0.1646 0.2843
-1.9880 -0.1721 0.1048
-2.3790 -0.1869 0.0499
-1.9521 -0.1676 -0.0025
-1.8906 -0.1681 -0.0393
-1.9124 -0.1735 0.3055
-2.0145 -0.1685 0.3207
-2.0753 -0.1824 0.4183
-2.1423 -0.1752 0.3689
-2.3478 -0.1688 0.3705
-2.0478 -0.1723 0.0931
-1.9779 -0.1762 0.1853
-1.9574 -0.1604 -0.1521
-1.9396 -0.1813 0.1508
-1.9486 -0.1604 -0.1419
-1.9143 -0.1670 -0.1319
-2.2422 -0.1764 -0.1045
-2.1075 -0.1688 0.2643
-2.2035 -0.1536 -0.1484
-2.2284 -0.1778 0.2535
-1.9713 -0.1591 0.0211
-2.1406 -0.1725 -0.1096
-2.0288 -0.1642 -0.1676
-1.9106 -0.1669 0.3010
-1.9968 -0.1677 0.3738
-2.3497 -0.1634 0.4901
-2.0272 -0.1605 0.0132
-2.0537 -0.1680 0.0758
-2.0327 -0.1714 0.1137
-1.8646 -0.1780 0.1742
-1.9492 -0.1738 0.1884
-1.9458 -0.1746 0.1420
-2.1680 -0.1581 0.1619
-1.9941 -0.1749 0.0536
-2.0346 -0.1613 -0.1138
-2.3834 -0.1535 0.0030
-2.4338 -0.1596 0.0043
-2.1091 -0.1718 -0.0695
-2.2915 -0.1612 -0.0245
-2.1292 -0.1806 0.3606
-2.3215 -0.1761 0.2966
-2.2834 -0.1591 0.3479
-1.9509 -0.1734 0.0625
-1.9614 -0.1538 -0.1255
-2.1362 -0.1742 0.2600
-2.2054 -0.1597 0.2476
-2.4176 -0.2457 -0.0255
-2.4486 -0.1723 0.0355
-2.0150 -0.1723 0.0022
-1.9535 -0.1584 0.3252
-2.0599 -0.1728 -0.1319
-1.9612 -0.1688 0.2965
-2.1327 -0.1648 0.3419
-2.1648 -0.1696 0.1027
-2.3424 -0.1663 0.3946
-2.0766 -0.1651 -0.1498
-1.9932 -0.1718 0.3577
-2.1611 -0.1740 0.2583
-2.3749 -0.1650 -0.1259
-1.9354 -0.1717 0.1365
-2.3710 -0.1548 0.1602
-2.3486 -0.1420 0.1127
-2.0158 -0.1595 -0.1227
-2.1574 -0.1693 -0.0042
-2.0676 -0.1760 -0.0215
-1.8973 -0.1725 -0.0487
-2.2127 -0.1642 0.0394
-2.0911 -0.1704 0.3814
-2.0312 -0.1657 -0.1630
-2.2317 -0.1772 -0.1399
-2.0449 -0.1606 -0.0905
-2.2673 -0.1484 -0.0104
-2.2696 -0.1558 0.0102
-2.0886 -0.1674 0.0344
-2.1975 -0.1753 0.0733
-2.0105 -0.1670 0.1457
-2.3655 -0.1668 0.2330
-2.3583 -0.1625 -0.0257
-2.3611 -0.1517 0.2890
-2.0074 -0.1708 -0.1688
-2.1496 -0.1569 0.3608
-2.4462 -0.1620 -0.1578
-2.2269 -0.1708 -0.1695
-2.3935 -0.1429 -0.1407
-2.3802 -0.1652 0.4391
-2.4607 -0.1621 -0.1109
-2.4506 -0.1745 -0.0495
-1.9959 -0.1634 0.1711
-2.2022 -0.1673 0.2226
-2.1993 -0.1672 0.2482
-2.1302 -0.1609 0.3982
-2.2677 -0.1742 0.4088
-2.1922 -0.1822 -0.0153
-2.3649 -0.1687 -0.0932
-2.1085 -0.1606 -0.0412
-2.3024 -0.1567 0.3336
-2.1594 -0.1684 -0.0996
-2.0831 -0.1794 0.3680
-2.2170 -0.1642 -0.1586
-2.0289 -0.1655 -0.1345
-2.1327 -0.1554 0.0659
-1.9825 -0.1763 0.1414
-1.9907 -0.1751 -0.1173
-2.2329 -0.1640 -0.1640
-1.9755 -0.1891 0.4013
-2.0124 -0.1770 0.2890
-2.0012 -0.1617 -0.1278
-1.9813 -0.1631 -0.1070
-1.9797 -0.1598 -0.0933
-2.1793 -0.1685 0.2816
-1.9854 -0.1619 0.2527
-1.9488 -0.1841 0.3244
-1.9734 -0.1697 0.2643
-1.9269 -0.1737 0.0989
-1.8991 -0.1682 0.3283
-2.0183 -0.1702 0.0119
-2.0457 -0.1655 0.2653
-1.9715 -0.1720 -0.0170
-2.0818 -0.1567 -0.0995
-2.4388 -0.1513 -0.1252
-2.0007 -0.1795 -0.0172
-2.3317 -0.1709 -0.0787
-2.1664 -0.1762 -0.0794
-1.9668 -0.1690 -0.1750
-2.3550 -0.1458 0.2303
-2.3215 -0.1664 0.1154
-1.9536 -0.2046 0.0586
-2.4518 -0.1996 0.0311
-2.3833 -0.1946 0.3354
-1.8716 -0.1294 0.2237
-1.9812 -0.1814 0.3325
-2.0193 -0.1627 0.0667
-1.9029 -0.1773 0.2027
-2.0855 -0.1690 0.1410
-2.1129 -0.1577 -0.1235
-2.0098 -0.1677 -0.0748
-2.2430 -0.1750 -0.1327
-1.9779 -0.1651 0.0880
-1.8606 -0.1322 0.3066
-2.0800 -0.1664 -0.1674
-2.1445 -0.1774 0.2178
-1.9348 -0.1684 -0.0885
-1.9895 -0.1682 0.2731
-2.0157 -0.1641 0.1090
-2.4450 -0.1672 0.0370
-2.0159 -0.1647 0.0836
-2.0263 -0.1632 0.0289
-2.0849 -0.1592 -0.0164
-2.0238 -0.1728 -0.1505
-2.0447 -0.1595 0.0408
-2.2082 -0.1633 0.0724
-2.1685 -0.1694 0.2083
-2.0037 -0.1621 -0.1412
-1.9454 -0.1658 0.1567
-1.9377 -0.1734 0.1975
-1.9782 -0.1654 0.3235
-2.1627 -0.1561 0.1100
-2.3976 -0.1480 0.2666
-2.3996 -0.1540 0.2032
-2.0120 -0.1650 0.3720
-1.8629 -0.1716 0.2893
-1.9509 -0.1663 0.0809
-1.9832 -0.1652 -0.1093
-2.1999 -0.1577 -0.0446
-2.0967 -0.1659 0.1002
-2.1215 -0.1628 0.3163
-1.8864 -0.1783 0.1673
-2.0129 -0.1694 -0.1198
-2.1312 -0.1696 0.2507
-2.0488 -0.1695 -0.1813
-2.2415 -0.1693 0.1401
-1.9878 -0.1722 0.2246
-1.9762 -0.1489 0.1088
-2.0259 -0.1736 0.2481
-2.0102 -0.1639 0.0200
-2.0619 -0.1705 0.3199
-2.0616 -0.1672 0.0020
-2.3632 -0.1332 -0.0032
-2.3476 -0.1619 -0.0133
-1.9324 -0.1736 -0.0917
-1.9742 -0.1618 -0.0753
-2.3552 -0.1611 0.0019
-2.1621 -0.1804 0.2161
-2.2512 -0.1583 0.0076
-2.0070 -0.1773 -0.1053
-2.1702 -0.1700 0.1103
-2.0569 -0.1769 0.2363
-1.9631 -0.1690 0.3373
-2.0169 -0.1673 -0.1483
-2.2372 -0.1665 -0.1042
-1.9818 -0.1733 0.0768
-1.9974 -0.1726 0.0962
-2.1682 -0.1671 0.1357
-2.1843 -0.1714 0.0798
-2.0625 -0.1796 -0.1158
-2.0050 -0.1532 -0.0728
-1.9051 -0.1653 0.3101
-1.9069 -0.1600 0.1468
-1.8687 -0.1745 0.2554
-1.9150 -0.1810 0.3049
-2.1592 -0.1581 0.0444
-2.1960 -0.1598 -0.1007
-2.2119 -0.1714 -0.0153
-1.9801 -0.1699 0.3166
-1.9910 -0.1677 0.2711
-1.8666 -0.1700 0.1759
-1.9784 -0.1724 0.2472
-1.9776 -0.1689 0.3518
-1.9981 -0.1656 0.3711
-1.9752 -0.1629 0.0860
-2.0853 -0.1699 -0.0181
-2.0432 -0.1709 -0.1354
-1.9706 -0.1716 -0.1031
-2.0075 -0.1689 0.0787
-2.0408 -0.1732 -0.1488
-1.9171 -0.1633 -0.1619
-1.9467 -0.1644 -0.1461
-1.9417 -0.1676 0.0724
-1.9480 -0.1657 0.1288
-2.0238 -0.1704 -0.0208
-1.8944 -0.1629 -0.0400
-2.3690 -0.1644 0.1116
-2.0072 -0.1719 0.1279
-2.1207 -0.1594 -0.0246
-2.1699 -0.1622 -0.0442
-1.9672 -0.2054 0.1307
-2.1750 -0.1666 -0.0168
-2.2788 -0.1638 -0.0119
-2.0902 -0.1806 0.2154
-1.9438 -0.1766 0.3211
-2.2235 -0.1728 0.1573
-2.0238 -0.1603 0.0143
-1.8927 -0.1612 0.1125
-2.0038 -0.1796 -0.0606
-2.3701 -0.1562 0.1029

