-1.0877 -1.5245 0.5974
-1.1492 -1.0816 0.6148
-0.9234 -1.3093 0.8919
-0.1264 -0.9690 0.3896
-0.7825 -1.2707 0.9740
-1.0939 -1.6177 0.0118
-0.9869 -0.5321 0.1878
-0.8523 -0.6582 0.0751
-2.7795 -0.9084 2.0378
-1.6147 -0.8376 0.9443
-1.6788 -0.6967 0.5596
-1.8663 -0.6465 1.4767
-1.7208 -0.8256 1.0120
-1.9016 -0.8799 1.0094
-0.9888 -1.4384 1.2723
-1.9195 -0.7778 1.6914
-1.0235 -1.3127 0.9026
-0.7566 -1.5418 0.6656
-0.9521 -1.4601 0.7440
-1.7160 -0.8035 0.8935
-2.4003 -0.5906 1.0689
-1.2589 -0.6862 0.4868
-1.3270 -0.6331 0.4791
-1.0099 -0.6375 0.6222
-2.6151 -0.3706 0.2235
-1.3760 -0.7067 0.2040
-1.4457 -0.7018 -0.0222
-1.1946 -0.6762 -0.0701
-1.1808 -0.6559 -0.0426
-0.0307 0.0876 0.0580
-0.7664 -1.4918 0.4096
-0.9973 -1.4954 0.0509
-0.1008 -0.0646 0.0440
-0.0515 0.1163 -0.0191
-0.1676 0.1115 0.1248
-0.6871 -0.9485 1.0219
-1.4997 -0.8080 0.2851
-0.0791 0.0770 0.0084
-0.1775 0.1532 -0.0045
-0.1027 0.0881 -0.0333
-3.0487 -0.5265 1.9212
-2.3319 -0.7621 2.0364
-1.9863 -0.6844 1.4714
-0.9714 -1.4743 0.7974
-1.8018 -0.8777 0.6176
-1.1320 -0.6114 0.4050
-0.2083 0.0855 0.0301
-0.0271 0.1436 0.0215
-0.1063 -0.0345 0.0821
-2.2711 -0.6254 1.5631
-0.8938 -1.5362 0.6250
-2.0142 -0.6607 0.6469
-0.1636 -0.1966 0.2466
-0.0652 0.1016 -0.0308
-0.1073 0.1653 0.0393
-0.0754 0.1735 0.0324
-0.0761 0.0857 -0.0098
-0.0831 0.1276 -0.0215
-1.2755 -0.5194 0.1221
-0.2606 -0.5077 0.2411
-0.3157 0.0648 0.2477
-0.1237 0.1670 0.0480
-0.2663 0.1716 0.0211
-0.0346 0.1630 0.0473
-0.0480 0.1518 0.0240
-1.6368 -0.7133 0.2880
-0.1230 -0.1368 0.1835
-0.0951 0.0432 0.1330
-0.0736 0.1155 0.0953
-0.0385 0.2255 0.0034
-0.1712 -0.1237 0.1538
-0.0309 0.2237 -0.0083
-0.0604 0.1320 0.0354
-0.0779 0.1647 0.0287
-0.2489 -0.2589 0.1430
-0.1014 0.1228 -0.0028
-0.0771 0.2226 0.0413
-0.3887 -0.4024 0.2501
-0.7757 -1.1910 -0.4392
-0.7839 -1.3956 -0.1058
-0.7250 -1.3992 0.4615
-0.7346 -1.2923 0.4364
-1.2785 -1.3614 -0.3261
-1.0229 -1.3119 0.8753
-0.8756 -1.3912 0.5587
-0.6922 -1.5788 0.2619
-0.9775 -1.4227 0.0326
-1.1166 -0.4025 0.5655
-0.9526 -1.3347 0.9427
-1.4196 -0.6702 -0.0736
-0.9719 -1.3653 -0.2605
-0.9793 -0.0095 0.1457
-0.9143 -0.6303 -0.0835
-0.9535 -1.3526 0.0041
-1.4876 -0.5768 0.6803
-1.4971 -0.5995 0.6726
-1.7089 -0.6390 -0.0116
-0.5487 -1.6959 0.8765
-0.5206 -1.6724 0.8553
-1.3302 -0.7019 0.1944
-0.9522 -1.3457 -0.0170
-1.2434 -1.4254 -0.0585
-0.7010 -1.5616 -0.4336
-1.1235 -0.5920 0.1465
-2.8749 -0.7798 -0.5526
-2.8967 -0.8429 0.0359
-0.4299 0.1709 -0.0066
-1.5445 -0.6073 0.4784
-1.3194 -0.6559 0.1594
-1.3063 -0.5571 0.6545
-0.7815 -1.3389 0.2342
-1.3105 -0.8088 -0.0974
-0.9004 -1.7293 -0.2964
-1.3271 -0.6586 0.2938
-0.7748 -1.4930 0.3901
-0.7919 -1.3432 -0.1409
-0.5875 -1.4168 0.5155
-1.3849 -0.6692 0.4530
-1.7133 -0.6957 1.2116
-0.9672 -1.2678 0.8595
-1.3014 -1.4258 -0.3318
-0.9933 -0.6357 0.6040
-1.2353 -0.6869 0.4127
-1.4282 -0.6573 0.7248
-2.2685 -0.6051 1.3855
-1.2966 -0.6201 -0.0539
-2.6125 -0.8135 1.5206
-2.3668 -0.5816 1.4335
-1.2434 -1.4545 -0.1106
-1.6097 -0.6935 0.7407
-1.4325 -0.6247 0.5901
-0.9693 -1.2583 0.4636
-0.9984 -1.4039 0.8644
-0.9278 -1.4490 0.6977
-1.0332 -1.3269 0.3316
-1.4661 -0.6347 0.2337
-1.2737 -0.6488 0.1631
-1.5348 -0.7019 0.1876
-1.1373 -1.3504 0.0990
-1.1587 -1.3391 -0.0472
-1.0595 -1.3259 -0.1324
-0.9972 -0.6194 0.5861
-2.8560 -0.4436 1.5531
-3.3791 -0.3693 1.1328
-2.9862 -0.4531 0.8634
-3.5684 -0.6464 0.9559
-3.1521 -0.4642 0.2575
-3.2928 -0.6285 -0.4060
-3.1748 -0.3848 -0.0182
-2.9575 -1.0030 0.4807
-3.1419 -0.4283 -0.4041
-2.9539 -0.3567 0.9885
-3.3242 -0.3847 0.9270
-2.8204 -0.2658 0.0924
-3.1205 -0.3706 -0.3801
-3.2844 -0.7124 -0.4806
-1.1886 -0.6985 -0.0897
-3.3396 -0.7490 -0.4782
-3.0135 -0.6940 -0.2117
-3.3174 -0.3744 1.0240
-2.7715 -0.8053 -0.2563
-1.8052 -0.7041 1.2736
-0.8660 -1.1792 0.7894
-1.0322 -1.0952 0.6810
-1.2605 -0.6870 0.4410
-1.7050 -0.6430 1.2746
-1.3853 -0.6118 0.7105
-3.0766 -0.3445 1.8667
-3.7997 -0.3130 0.5703
-3.6677 -0.3418 0.3071
-3.9552 -0.2300 0.2227
-3.8142 -0.2483 0.6079
-3.3194 -0.3485 1.6357
-3.5538 -0.3842 0.4226
-3.1381 -0.3616 1.9955
-3.7891 -0.2467 1.2396
-3.9028 -0.7616 0.4304
-2.7045 -0.2722 -0.2798
-2.6421 -0.7990 1.6940
-2.4994 -0.7649 1.9095
-1.0658 -1.2888 0.8923
-1.0024 -1.3583 0.8230
-1.3804 -0.6932 0.0461
-1.7484 -0.6928 -0.0029
-1.5731 -0.6841 0.7191
-1.6293 -0.6810 0.4601
-1.3767 -0.6880 0.2344
-1.1790 -0.6763 -0.0721
-3.6278 -1.1340 1.4164
-3.1917 -0.0213 1.0489
-3.1911 -0.0623 0.9436
-3.5555 -0.3695 0.6650
-3.5381 -0.3560 0.4691
-3.2748 -0.2156 0.1408
-2.8408 -0.3353 2.0998
-3.0139 -0.4081 1.8270
-2.9970 -0.4034 1.5943
-0.9106 -1.4378 0.3507
-1.3386 -0.6709 0.0765
-1.7482 -0.7147 0.0076
-3.7257 -0.1137 0.5025
-3.6227 -0.6496 0.5303
-3.6356 -0.3217 0.4878
-3.4072 -0.0180 0.8993
-3.6360 -0.2318 0.9174
-3.1746 -0.3790 0.1782
-1.6151 -0.4543 0.4566
-1.8732 -0.6063 0.4933
-1.7660 -0.5843 1.2395
-3.0351 -0.3480 2.0533
-0.9494 -1.3827 0.6791
-0.9311 -1.4346 0.5890
-0.9392 -1.4012 0.0357
-1.1194 -1.5019 1.2699
-0.7182 -1.2353 0.6862
-0.6777 -1.2908 0.5645
-0.5568 -1.1754 0.8141
-0.8782 -1.2709 -0.0092
-2.1886 -0.8582 1.6963
-1.0038 -0.6471 0.6045
-1.2747 -1.3915 -0.3324
-0.7207 -1.3943 0.5897
-0.7514 -1.4037 0.3693
-0.9450 -1.3806 0.6673
-1.3613 -0.6489 0.4243
-1.1132 -1.2882 -0.0983
-1.0072 -1.3568 0.9432
-0.6807 -1.2796 0.5029
-0.8607 -1.4161 -0.0083
-0.6604 -1.4341 0.8252
-0.9591 -0.5979 0.5552
-1.4125 -0.6659 0.4696
-1.7299 -0.6575 1.1310
-0.9958 -1.3989 0.9117
-0.6815 -1.3730 0.3574
-0.8904 -1.4301 0.3846
-0.8643 -1.6255 -0.1851
-1.1350 -0.6422 -0.0705
-3.1410 -0.7098 -0.4013
-3.2548 -0.6319 -0.4094
-3.0120 -0.7066 -0.2125
-2.1034 -0.5642 1.2837
-2.2809 -0.5716 1.3795
-0.9860 -1.4009 0.8495
-0.7002 -1.3913 0.5327
-1.3772 -0.6917 0.4600
-1.4323 -0.6311 0.4297
-1.6123 -0.6666 0.4653
-1.9165 -0.6057 0.2734
-1.2839 -0.6708 0.1894
-0.6949 -1.4049 0.0439
-0.7336 -1.3518 -0.1299
-1.1089 -0.6410 -0.0835
-1.2491 -1.3303 -0.3481
-1.1206 -1.5011 0.5329
-0.7643 -1.4109 -0.1136
-0.7635 -1.3503 -0.2730
-2.8149 -0.4552 1.5285
-3.1380 -0.3356 0.1067
-3.3135 -0.8346 0.9705
-3.0203 -0.4755 0.8676
-3.2927 -0.4977 0.0879
-3.1025 -0.4243 0.9244
-1.6784 -0.7050 1.1794
-0.9929 -1.4757 1.0026
-0.9604 -1.3249 0.8402
-1.3951 -0.6418 0.7082
-1.6382 -0.6647 1.1507
-0.8088 -1.3973 0.4312
-1.3167 -0.7081 0.2041
-0.9178 -1.3210 -0.2504
-3.5807 -0.4171 1.2071
-3.1278 -0.4232 1.0413
-3.5672 -0.8737 0.6184
-3.1801 -0.3746 0.9676
-1.2528 -0.7102 0.4124
-0.9194 -1.4355 0.2374
-1.0684 -1.3925 0.1744
-1.3357 -0.7025 0.1642
-1.2192 -0.6804 0.1550
-0.9643 -0.5849 0.5580
-0.7686 -1.4221 0.3246
-1.6294 -0.6867 0.4553
-1.3682 -0.6644 -0.0470
-2.9892 -0.5430 -0.3853
-2.8589 -0.9067 -0.2410
-2.6156 -0.7519 -0.2477
-1.6031 -0.5100 1.0174
-1.1484 -0.6679 -0.0882
-3.8892 -1.0758 0.1973
-0.8852 -1.4541 0.5182
-1.2055 -1.4117 -0.1093
-0.9462 -1.4416 -0.1980
-0.9768 -1.4488 -0.0259
-0.8020 -0.6437 0.4882
-3.9125 -1.2765 1.5111
-2.4342 -0.6762 1.4881
-1.2861 -1.2477 -0.3293
-3.8749 -0.7818 0.4230
-3.2471 -0.4562 1.8558
-0.9250 -1.5273 0.4123
-0.9971 -1.5415 0.0311
-1.4601 -0.6558 0.5926
-1.0971 -0.6995 0.3940
-1.1454 -0.6636 -0.0914
-0.9338 -1.2867 0.8503
-0.9899 -0.6370 0.6016
-0.9474 -1.3925 0.6790
-0.8656 -1.4405 0.5606
-1.1760 -1.3640 -0.1093
-1.2779 -0.6464 0.1489
-0.9900 -1.2801 0.6233
-1.4418 -0.6269 0.4296
-0.9015 -1.4783 0.3942
-1.0729 -1.4184 0.5111
-2.3675 -0.6011 1.4281
-2.3407 -0.6389 1.4271
-1.6759 -0.6736 0.0024
-1.5652 -0.6376 1.0960
-1.3616 -0.6191 0.6933
-1.3934 -0.7031 0.4668
-1.5805 -0.6462 0.4583
-1.5333 -0.7062 0.1880
-0.9675 -1.4764 0.0291
-1.2727 -1.2664 -0.3297
-2.3359 -0.7269 1.3594
-2.6330 -0.7957 1.5068
-2.7205 -0.8088 -0.2169
-3.0789 -0.7230 -0.2245
-3.1808 -0.7257 -0.2684
-2.9810 -1.0746 1.0778
-3.1772 -0.3765 0.9787
-3.2194 -0.3835 0.8909
-3.1726 -0.7146 -0.4115
-3.4612 -0.8407 -0.6046
-3.6099 -0.7928 1.7117
-3.5900 -0.9743 1.3927
-3.1119 -0.4285 1.1409
-2.4318 -0.6323 1.5925
-2.5482 -0.2424 -0.2654
-2.7516 -0.2159 0.0881
-3.0658 -0.4359 1.6421
-0.8847 -1.0011 0.6633
-1.5340 -0.6467 0.7121
-1.0767 -1.3974 0.5150
-1.2235 -0.6591 0.4260
-1.2037 -0.6700 0.4018
-1.4521 -0.6568 0.3886
-1.0522 -1.4534 0.1695
-1.0381 -0.6654 0.6116
-3.1047 -0.4616 0.2499
-3.3359 -0.6475 -0.4242
-1.5134 -0.6400 0.6883
-3.6475 -0.6957 0.9693
-3.0906 -0.4181 0.1271
-3.1282 -0.4312 -0.4080
-3.8338 -0.7708 0.4168
-3.3747 -0.3863 1.1245
-2.9524 -0.3562 -0.3545
-3.1932 -0.3999 -0.0098
-3.5848 -0.4114 0.8433
-3.7188 -0.3883 0.7761
-3.4566 -0.3691 0.6365
-3.4048 -0.3812 0.4795
-3.4504 -0.3793 0.4067
-2.7524 -0.2718 0.0939
-3.2921 -0.4115 -0.2506
-2.9556 -0.3802 0.0420
-2.9356 -0.4082 1.7788
-0.9206 -1.3408 0.9272
-0.8853 -1.3123 0.6077
-0.9196 -1.4370 0.5805
-0.8381 -1.3978 0.4968
-1.6102 -0.6868 0.5004
-1.3348 -0.6864 0.2930
-1.2302 -1.4299 0.0123
-1.5676 -0.6519 0.4440
-1.2936 -0.6627 0.3193
-1.1423 -0.6456 -0.0721
-3.1630 -0.3697 1.9279
-3.0766 -0.4126 1.0308
-2.3254 -0.6436 1.4201
-0.6983 -1.3388 0.5724
-0.6690 -1.3495 0.3551
-0.8561 -1.3668 0.3770
-1.3391 -0.6947 0.4282
-1.0718 -0.1909 0.2770
-1.6931 -0.6658 -0.0060
-1.4052 -0.6297 0.7211
-1.2263 -0.5796 0.6188
-1.4438 -0.6073 0.6611
-3.6717 -0.3266 0.5485
-3.4837 -0.3155 0.4617
-3.5666 -0.3455 0.2995
-3.8623 -0.9504 0.4429
-3.2195 -0.7164 -0.4807
-1.9325 -0.6264 0.5003
-0.6380 -1.3704 0.2945
-3.3523 -0.5105 0.0888
-2.1737 -0.7454 1.4375
-0.6220 -1.2918 0.8277
-0.6471 -1.3030 0.7418
-1.0601 -1.4646 0.8611
-0.9342 -1.3618 0.6608
-1.3015 -1.4018 -0.3926
-1.3412 -1.3477 -0.3529
-0.7456 -1.3697 0.3142
-0.7879 -1.4627 -0.1116
-3.1668 -0.3687 2.0278
-1.0200 -1.3371 0.4821
-0.9656 -1.4176 -0.0203
-1.7304 -0.5751 1.2175

