0.0594 -1.0506 -0.8072
-0.2824 -1.2946 -0.6246
-0.1634 -0.9951 -0.7407
0.2130 -0.7105 -0.7292
0.7394 -1.1894 -1.2076
0.9608 -1.2317 -1.4952
1.2986 -1.3043 -1.2736
1.2576 -1.2239 -1.1171
1.2316 -1.1503 -1.0966
0.3283 -1.3678 0.0719
0.3058 -1.2598 0.0246
1.2782 -0.9960 -1.1470
0.6698 -1.4268 -0.4842
0.5848 -1.2297 -0.4158
0.6844 -1.2087 -0.3807
0.6577 -1.1017 -1.2446
1.3109 -1.1541 -1.4522
1.3662 -1.1461 -1.1606
0.4100 -1.2874 -0.2438
0.6729 -1.0825 -1.2123
0.5416 -1.2318 -0.4750
-0.2108 -1.1555 -0.6761
1.1427 -1.1831 -0.9418
0.4894 -1.2151 -0.4523
0.5013 -1.1491 -0.3600
-0.1242 -1.0352 -0.6941
-0.1782 -1.2260 -0.6933
-0.1860 -1.2317 -0.6200
0.4346 -1.1990 -0.3994
-0.1597 -1.2660 -0.6639
1.0153 -1.2228 -1.2078
0.0377 -1.0397 -0.8547
-0.2295 -1.6730 -0.7152
0.1096 -1.3079 -0.0780
0.8368 -1.1303 -1.1328
0.5717 -1.2344 -0.7954
0.7936 -1.0325 -1.0798
0.1263 -1.1893 -0.1549
0.2000 -1.5639 -0.4059
0.1112 -1.1830 -0.3056
0.6706 -1.1588 -1.2756
0.6921 -1.1666 -1.3356
0.8276 -1.3142 -0.4135
0.4119 -1.1498 -0.8931
0.4302 -1.4398 -1.0286
0.0923 -1.0912 -0.6734
0.0810 -1.0904 -0.6501
0.4514 -1.2937 0.0410
0.0883 -1.1435 -0.6317
0.1234 -1.1083 -0.6609
0.1241 -1.1292 -0.5648
0.2968 -1.1313 -0.8672
0.1609 -0.9995 -0.6173
0.8390 -1.1858 -0.4209
0.2913 -1.0569 -0.8659
0.6294 -1.1879 -0.3437
0.5781 -1.2048 -0.2309
0.7640 -1.2139 -0.4172
0.7250 -1.2172 -1.0537
0.2391 -1.3234 -0.3690
0.3895 -1.2248 -0.7210
0.9522 -1.2938 -1.3234
0.8323 -1.3580 -1.3120
-0.2073 -1.1393 -0.6905
-0.0230 -0.6951 -0.6334
-0.0181 -0.6576 -0.5610
0.2375 -0.7569 -0.7824
0.6729 -1.1770 -1.4522
0.8855 -1.3119 -1.3998
1.1280 -1.0998 -1.4653
0.3866 -1.2860 0.0683
0.3320 -1.2948 -0.8198
0.0869 -1.2747 -0.1534
1.4443 -1.0379 -1.2130
1.2622 -1.1926 -1.5383
-0.0259 -0.7164 -0.6129
1.4233 -0.9358 -1.0759
1.4929 -0.8737 -1.1930
1.3948 -1.0086 -1.2225
1.4433 -1.0149 -1.2958
1.3492 -1.3122 -1.7524
0.1633 -1.1545 -0.5616
0.1762 -1.0473 -0.5614
0.1579 -1.0225 -0.7124
0.0765 -1.0661 -0.7470
0.3704 -1.2180 -0.1588
1.0062 -1.2478 -0.8852
0.7262 -1.5016 -0.4058
0.1022 -1.1040 -0.5807
1.6936 -1.4219 -1.0433
1.1005 -1.1867 -0.5691
0.5639 -1.2002 -0.0159
1.2164 -1.1203 -1.0241
-0.0098 -1.7216 -0.3664
0.6879 -1.1350 -0.3930
0.7124 -1.1361 -0.9371
0.0904 -1.3825 -0.3936
0.2946 -1.2201 -0.3573
0.7065 -1.1448 -0.9662
-0.1858 -1.2131 -0.6435
1.0916 -1.2035 -0.6010
0.0763 -0.3938 -0.5070
1.5335 -0.9517 -1.1605
0.1804 -1.3825 -0.4724
0.1371 -1.2240 -0.3793
0.7694 -1.0950 -1.1318
0.8967 -1.3576 -0.4145
0.2648 -0.4173 -1.0138
1.4891 -1.1984 -1.1779
-0.0635 -1.1505 -0.5834
0.3286 -0.9247 -0.2753
0.5685 -1.2221 -0.0729
-0.1276 -1.0593 -0.6925
0.2477 -0.3416 -0.7886
0.0128 -1.1199 -0.3036
0.2483 -1.2042 -0.1513
0.5665 -1.3753 -0.4572
0.5574 -1.1661 -0.3960
0.3338 -1.2103 -0.1141
0.3761 -1.1671 -0.0613
0.4257 -1.1931 -0.0748
1.4662 -0.9751 -1.2164
1.6982 -1.3770 -1.1860
0.8851 -1.3076 -0.3369
1.5883 -1.1605 -1.0713
1.0673 -1.3257 -0.5873
1.3623 -1.0329 -1.1945
1.5135 -1.0379 -1.0973
1.6034 -1.0611 -1.3481
1.4763 -1.1095 -1.2834
1.5349 -0.9924 -1.3669
1.3131 -1.0305 -1.3812
1.2412 -1.1549 -1.5158
0.2056 -0.9239 -0.7229
0.1215 -0.9270 -0.7710
0.3531 -1.1974 -0.3095
0.5802 -1.1625 -0.6328
0.5702 -1.3186 -0.5075
0.7961 -1.1679 -0.8247
0.0882 -1.1224 -0.6335
1.6131 -1.2096 -1.2008
0.0653 -1.3150 -0.4458
0.2457 -1.2339 -0.3768
1.1812 -1.2165 -0.9950
1.5808 -1.1335 -1.5534
0.1694 -1.3895 -0.5328
0.0599 -1.3749 -0.4785
0.1679 -1.2510 -0.5388
0.0543 -1.1670 -0.7060
1.5789 -1.1839 -1.1269
0.1981 -1.2253 -0.4262
1.3565 -1.1341 -1.3499
0.4772 -1.8090 -0.6494
0.9705 -1.3437 -0.9639
0.3471 -1.0189 -0.2130
0.2131 -0.5549 -0.8846
0.4233 -1.0256 -0.3261
0.5366 -1.2913 -0.9747
0.1643 -0.7511 -0.7912
0.2311 -0.7179 -0.7888
0.2207 -1.2358 -0.9396
0.5622 -1.1003 -1.0856
0.7985 -1.4836 -1.3301
0.5569 -1.3035 -1.0257
0.7179 -1.2126 -1.1479
0.8278 -1.0566 -1.0581
0.3461 -1.2292 -0.3376
0.7641 -1.1726 -0.6863
0.5485 -1.3364 -0.2711
0.5896 -1.3760 -0.2400
0.8361 -1.0579 -0.3783
0.1564 -1.1227 -0.7884
1.5099 -1.0972 -0.8810
2.1840 -1.3427 -1.4802
1.6408 -0.9643 -1.1557
2.2020 -1.4060 -1.4913
1.2102 -0.5986 -1.0338
1.3992 -1.3064 -1.2791
1.3725 -0.9117 -1.5330
0.4165 -1.0624 -0.8753
0.2963 -1.0191 -0.8258
0.5365 -0.5451 -1.2368
0.5278 -0.3150 -0.9990
0.4866 -0.2622 -0.8834
0.5713 -0.3487 -1.0585
1.1445 -1.3312 -0.4330
0.5610 -0.3007 -0.9799
1.0289 -1.4618 -0.3178
1.5792 -1.1162 -0.9830
0.9314 -1.1088 -0.3933
1.1148 -1.1578 -0.5786
1.5694 -1.1452 -1.1042
1.4043 -0.7313 -1.1674
0.5546 -1.1776 -0.6998
0.6593 -1.3088 -0.2697
1.5079 -1.0367 -1.3810
1.3259 -0.6248 -1.2551
0.5641 -1.1369 -0.3307
0.6814 -1.2421 -0.4922
0.6682 -1.4196 -0.7255
0.6520 -1.3196 -0.6772
1.4044 -1.3785 -1.5746
1.1595 -1.0662 -1.4066
0.7243 -1.0570 -0.7654
1.4590 -0.7049 -1.0690
1.1003 -1.4929 -0.4537
1.6401 -1.2722 -1.0756
0.4093 -1.2142 -0.7351
0.4686 -1.1665 -0.3495
1.4566 -1.1934 -1.0279
0.6191 -1.1590 -0.5150
0.8875 -1.5132 -0.3376
0.6116 -1.1375 -0.4468
0.8224 -1.2121 -1.0146
0.5859 -1.1522 -0.2520
1.4206 -0.7319 -1.2966
0.7462 -1.7886 -0.7285
0.4652 -1.5310 -0.8975
0.9795 -1.2635 -0.4802
0.3350 -1.4281 -1.0128
0.4435 -1.1787 -0.6986
0.4405 -1.1850 -0.4427
0.8195 -1.2755 -0.6644
1.3104 -0.6538 -1.3313
1.4696 -1.1028 -1.4376
1.4536 -1.2460 -0.9671
0.9338 -1.1878 -0.3041
1.6001 -1.1279 -0.9300
0.6848 -0.6003 -1.3004
1.4206 -0.5984 -0.9249
1.4079 -0.5277 -0.9751
1.4144 -0.9392 -1.1030
1.3029 -0.9481 -1.1095
0.4037 -0.9858 -0.8550
1.2866 -1.3729 -1.1870
1.3863 -0.9371 -1.4940
1.2849 -0.5273 -1.4846
0.7002 -1.0870 -1.2692
0.5498 -1.2137 -0.3782
1.2108 -1.0606 -0.3303
1.1700 -0.7209 -0.4734
1.1618 -1.1697 -0.6358
0.8284 -1.3115 -0.3389
1.6274 -0.9888 -1.1703
1.4073 -0.7145 -1.1004
0.9044 -1.2799 -1.2820
1.4325 -1.1792 -1.2188
0.8016 -0.5853 -1.3376
0.5228 -1.1078 -0.4825
0.5198 -1.0444 -0.8972
0.6990 -1.2923 -0.7365
0.7021 -0.8014 -0.7828
1.4461 -0.6265 -0.7850
1.3889 -0.6484 -0.7482
0.7687 -0.8158 -0.1883
1.1471 -1.1585 -1.2365
1.0957 -1.2419 -0.3022
1.1612 -1.2531 -0.3463
0.7458 -1.1006 -0.1799
0.7408 -1.2075 -0.5759
0.5788 -1.1973 -0.6950
0.6654 -1.0174 -1.3379
0.5514 -1.2383 -1.2961
1.5530 -1.1699 -0.9907
0.5035 -1.1894 -0.6502
1.4612 -1.2067 -0.9108
0.6515 -1.1890 -0.9302
1.3260 -0.5695 -0.9888
0.3228 -1.1350 -0.5918
0.8236 -1.1939 -1.3067
0.5919 -1.1857 -0.8315
0.5298 -1.2145 -0.5614
0.8988 -1.2192 -0.9439
1.3563 -0.6591 -1.1058
1.4366 -1.1534 -0.8383
1.3578 -0.4604 -0.9529
1.1476 -1.2513 -0.3211
1.4356 -0.9470 -0.6557
1.2912 -1.0380 -0.5101
0.9322 -1.2104 -0.1500
1.4129 -1.2267 -0.4529
0.8094 -0.2194 -0.4367
1.3865 -0.8264 -1.4158
1.1270 -1.1659 -0.6586
1.2909 -1.0342 -0.6188
1.2330 -0.5698 -0.4939
1.2880 -1.1575 -0.2966
1.1370 -1.2853 -0.1475
0.7049 -0.6623 -1.3038
1.2750 -0.6282 -0.5647
0.7205 -0.7483 -1.3330
1.2379 -1.2401 -0.3284
0.3904 -1.0319 -0.8330
1.1900 -1.0898 -0.3702
0.7295 -0.9445 -1.3541
1.1383 -1.1674 -0.3394
1.1778 -1.2053 -0.3772
0.6460 -1.1689 -1.2999
1.1281 -0.7961 -0.4929
1.3090 -1.1303 -0.5972
1.5211 -1.0830 -0.7768
0.7768 -1.1438 -1.3472
0.9420 -1.0843 -1.5943
1.3859 -0.4496 -0.9621
1.1951 -1.2092 -0.5850
1.4203 -0.6483 -0.9577
0.8860 -1.2462 -0.3100
1.1732 -1.1252 -0.6257
1.4412 -1.1242 -0.8382
0.7353 -1.2340 -0.2290
1.1833 -1.1966 -0.6546
0.7074 -1.2255 -1.0513
0.6776 -1.0892 -0.9588
1.1218 -1.2131 -0.6470
0.4136 -1.1571 -0.5103
1.4110 -0.6643 -1.0852
0.4286 -1.1613 -0.5022
0.4601 -0.4160 -0.4137
0.6875 -1.1015 -0.3772
0.6211 -0.7346 -0.3664
1.4846 -0.9759 -1.2998
0.5813 -0.8117 -0.3382
1.1591 -1.0302 -1.3618
0.6088 -1.1346 -0.6268
1.0879 -1.1362 -1.2004
0.6461 -1.1487 -0.4597
0.5651 -1.1720 -0.3817
1.1685 -0.5368 -1.2073
1.4583 -1.0670 -1.5619
0.9006 -0.8279 -0.1544
0.5055 -0.9200 -0.9354
0.9150 -0.8588 -0.3651
0.8019 -1.1242 -1.2066
0.6832 -1.1569 -0.4902
0.8858 -1.1666 -1.2381
0.9807 -1.1914 -1.1983
0.4553 -1.2823 -1.1402
0.7215 -1.3390 -1.3618
0.5183 -1.1294 -0.7136
1.2476 -0.7777 -1.5609
0.5475 -1.1315 -0.6129
1.1380 -0.5298 -1.3116
1.1184 -1.1544 -1.2148
0.6644 -1.0588 -0.6100
0.5292 -1.2499 -0.4401
1.2276 -1.1843 -1.1069
0.6414 -1.2483 -0.4336
0.8302 -1.1360 -0.5203
1.1179 -1.0380 -0.7030
1.0799 -0.8743 -0.6351
0.9196 -1.1808 -0.4018
1.0436 -1.3347 -0.3233
1.1734 -0.6616 -0.5157
1.1612 -0.7430 -0.4488
1.2224 -0.7420 -0.4917
1.2142 -0.5300 -0.4977
0.4228 -1.0234 -0.8331
1.2508 -0.6241 -0.5257
1.6871 -1.1830 -1.2756
1.2865 -0.6301 -1.0575
1.0647 -0.5011 -0.9103
0.7256 -1.3919 -1.0863
0.5499 -1.0661 -0.4883
0.6276 -1.3398 -0.6872
0.9726 -1.3196 -0.2319
0.9946 -1.2506 -0.3637
0.7650 -1.2696 -1.2227
0.6269 -1.2774 -0.6901
0.3108 -1.2750 -0.9336
0.5015 -1.4257 -1.4368
0.2807 -1.3550 -0.9820
1.1392 -0.8636 -0.3123
0.7046 -0.9170 -0.6274
0.7409 -1.2644 -0.9791
1.4879 -1.1360 -0.9154
0.6303 -0.2826 -0.3424
0.8611 -0.7941 -0.3777
1.3296 -0.6709 -1.2350
1.1416 -1.2877 -0.5293
1.2678 -1.1656 -0.4775
0.3396 -1.2635 -0.9531
0.5478 -1.5475 -0.9855
0.7810 -1.2234 -1.1494
0.6816 -1.1830 -0.7155
0.7539 -1.0321 -0.6251
1.4465 -0.6626 -0.9543
0.4221 -1.2654 -0.8382
1.0610 -0.3272 -0.4250
0.3814 -1.0166 -0.8165
0.6754 -1.0763 -1.2454
1.1929 -0.5470 -0.4356
1.2319 -1.2213 -0.2113
1.2010 -0.5636 -0.4646
1.1707 -0.6280 -0.5212
1.1727 -1.2250 -0.6373
1.1042 -0.4641 -0.6826
1.4976 -1.0227 -1.1665
1.4428 -1.0638 -1.2869
1.0679 -0.6090 -1.0280
1.2446 -1.1653 -0.8942
1.1923 -1.1605 -0.8971
0.5346 -0.7026 -0.5300
0.9104 -1.2494 -0.1366
0.4115 -1.0507 -0.6974
0.5153 -1.0550 -0.6692
0.9892 -1.1507 -0.4339
0.2827 -1.1427 -0.8374
0.3497 -1.0181 -0.8243
0.4815 -1.0204 -0.9445
0.4299 -1.0255 -0.8670
0.7661 -1.1129 -1.2407
0.4932 -0.9740 -0.8072
0.8491 -2.1748 -1.3594
1.6412 -1.0623 -1.5754
0.7842 -0.9850 -0.7536
1.0909 -1.1224 -0.6335
0.8639 -0.9681 -0.3270
1.1879 -1.0121 -0.4781
1.2678 -0.7944 -0.3751
1.3833 -0.7198 -1.3524
1.2904 -1.1581 -0.2473
1.2341 -1.1569 -0.2428
1.1432 -0.2680 -0.4982
0.7841 -1.2130 -0.0479
0.9207 -1.1580 -0.1811
0.6818 -0.5440 -0.2663
1.1517 -0.7863 -0.5176
1.2870 -0.7115 -0.6801
1.1894 -1.0966 -0.6187
1.1915 -0.6238 -0.6335
1.3104 -0.5548 -0.7642
0.8373 -1.3478 -0.3920
0.5676 -1.3846 -0.4207
0.7875 -1.2822 -0.0137
0.8768 -1.1807 -0.1526
0.7676 -1.3977 -0.9203
1.2355 -0.5866 -0.5302
0.7498 -1.2879 -0.0651
1.0274 -1.1224 -0.2150
1.2025 -0.7366 -0.4135
1.2067 -0.6188 -0.5110
1.3688 -1.0418 -1.2065
0.0033 -0.9227 -0.7822
0.3256 -0.8326 -0.2306
0.3752 -1.3022 -0.2319
0.6573 -1.0176 -1.3402
1.4692 -0.9259 -1.2688
1.4417 -1.0572 -1.2094
1.5423 -1.2503 -1.1304
1.0548 -0.2413 -0.4352
0.8716 -1.1877 0.0659
1.3470 -1.1840 -0.2191
1.2753 -1.0976 -0.2330
1.3267 -1.0297 -0.2791
0.7979 -1.1615 -0.0623
1.2961 -1.1213 -0.2820
1.2102 -0.5859 -0.4986
1.3458 -1.0116 -1.2008
1.1746 -1.1697 -0.6284
0.9032 -1.1782 0.0438
1.1517 -1.2526 -0.0202
1.2873 -1.0844 -0.1107
0.9690 -1.1951 0.0229
1.3956 -0.5388 -0.9906
1.4289 -1.1219 -0.1741
0.8941 -1.1667 0.0253
0.9367 -1.2783 0.0475
1.0723 -1.2466 -0.0160
1.0844 -1.1293 -0.0593
1.1559 -1.1911 -0.1100
0.8240 -1.1812 0.0081
1.4718 -1.1790 -0.2628
0.8795 -1.1788 -0.0470
1.0198 -1.1964 -0.1254
1.0928 -1.2003 -0.1499
1.2927 -0.3883 -0.7331
0.8684 -1.2152 -0.0921
0.8540 -1.1738 -0.1259
1.4759 -0.8262 -1.1849
0.9819 -1.2301 -0.2236
1.2411 -1.1163 -0.3412
0.9532 -1.2491 -0.9467
1.0517 -1.1756 -0.2786
1.1426 -1.0943 -1.0771
1.2386 -1.1016 -0.4531
0.8262 -1.1982 -0.0081
1.2125 -1.2980 -0.5958
0.9515 -1.0923 -0.2163
0.9590 -1.2535 -0.2168
1.0660 -1.2566 -0.0558
1.4580 -1.2153 -0.8490
1.2407 -1.3257 -0.0542
1.2119 -1.2396 -0.3895
1.1549 -1.2160 -0.3862
1.1633 -0.5002 -0.4138
1.5340 -1.4481 -0.2958
1.4324 -1.1775 -0.1894
0.9146 -0.4050 -0.6576
0.8278 -1.2285 -0.3287
0.5741 -1.5051 -0.1444
0.9421 -1.1594 0.0238
1.3154 -1.0866 -0.3144
1.1006 -0.7538 -0.5282
1.1488 -1.1446 -0.5961
0.9389 -1.2741 0.1154
0.9555 -0.9248 -0.0301
1.1599 -0.2657 -0.5833
0.8021 -1.2089 -0.3311
0.9529 -1.2306 -0.1648
1.4105 -0.8898 -0.9296
1.0191 -1.2054 -0.0595
1.2059 -1.1442 -0.0765
0.8102 -1.2506 -0.5012
0.9244 -1.2740 -0.4052
1.1811 -0.7878 -0.4537
1.1188 -1.1851 -0.1943
1.0622 -1.1797 0.0022
0.9204 -1.4517 -0.4229
0.9359 -0.8844 -0.3253
0.6935 -1.1280 -0.2310
1.3990 -1.2595 -0.1793
1.1901 -0.7468 -0.4413
1.1467 -0.5421 -0.3449
1.1647 -0.4931 -0.3852
1.0449 -0.2753 -0.4163
1.0499 -0.2628 -0.4259
0.9816 -1.2928 -0.9277
0.5826 -1.2066 -0.7991
1.3309 -0.8549 -1.4849
1.3888 -0.4302 -0.8824
1.4192 -1.2354 -0.0622
0.7858 -1.0773 -0.5749
1.4417 -1.1417 -1.1661
1.4659 -1.1326 -1.1072
1.0657 -0.8140 0.0346
0.8983 -0.3616 -0.3723
1.3610 -0.6284 -0.7257
1.3848 -0.5494 -1.0729
1.3541 -1.3923 -0.2965
1.0095 -0.4955 -0.0239
1.3717 -1.0366 -0.1113
1.1635 -0.5866 -0.3149
1.1937 -0.7927 -0.3039
1.1327 -0.5721 -0.2641
1.0671 -1.1408 -0.3996
1.3245 -0.9025 -0.1845
1.1462 -0.8443 -0.4659
0.6818 -0.7419 -0.0904
1.1757 -0.4900 -0.3147
1.2365 -0.7676 -0.3189
1.2122 -0.8623 -0.3513
1.0644 -1.3649 0.1078
1.7134 -1.2528 0.6771
0.8808 -0.2573 -0.3179
1.2161 -1.0705 -0.3854
0.9779 -0.5647 -0.2746
1.1878 -0.6252 -0.2935
1.3165 -0.5270 -0.1850
0.8572 -0.0418 -0.2523
1.4461 -1.0437 -1.3382
1.5581 -0.8470 -1.0243
0.8720 -1.2219 -0.1916
0.9682 -1.1833 -0.2488
1.3212 -1.7492 -0.7675
0.9249 -0.1982 -0.3438
0.7574 -1.6893 -0.4660
1.3101 -1.2767 -0.2121
1.5767 -1.8945 -0.1642
0.7151 -1.2502 -0.1662
1.1694 -1.2949 0.0447
1.3371 -1.9206 -0.7649
0.4887 -1.5968 0.1240
1.2259 -1.6081 -0.7050
0.5254 -1.0816 0.0656
1.1000 -1.2033 -0.2816
0.9882 -1.6976 -0.3301
1.0816 -0.7495 -0.4411
1.4730 -1.2633 -0.3558
0.7726 -0.1639 -0.1971
1.2404 -1.0943 -0.1751
1.0467 -1.2593 0.1447
0.7418 -1.8419 0.0994
0.6939 -1.7267 0.0278
0.7370 -1.1762 0.2041
1.4955 -1.0451 0.4863
1.9779 -1.8225 0.8262
1.7463 -1.5278 1.1038
1.7414 -1.6100 0.8388
1.2290 -1.9804 0.8312
1.8725 -1.6499 0.9141
1.2902 -0.6682 0.4034
1.2434 -0.8471 -0.3302
0.9279 -0.2212 -0.3227
0.8912 -0.0768 -0.3484
0.9093 -0.1327 -0.2309
1.1767 -0.6421 -0.2794
0.7745 -0.4155 -0.1870
0.7588 -1.4094 -0.3756
1.1470 -1.2214 -0.3146
0.7899 -1.4040 0.0538
1.2538 -1.0259 -0.3991
1.1322 -1.2858 -0.2265
0.7890 -1.2111 0.0054
1.1018 -1.2468 0.1046
0.8660 -1.2224 0.0390
1.0465 -1.1438 0.2337
1.1801 -1.2208 0.2872
0.5148 -1.2217 -0.0324
0.6113 -1.3304 0.0010
1.2744 -1.1905 -0.2034
1.0672 -0.9884 -0.1864
1.0451 -1.2422 -0.0167
0.8580 -1.2545 -0.2510
1.1381 -1.1773 -0.3069
0.6633 -1.2606 0.0764
0.6396 -0.4692 -0.1574
0.8979 -0.1478 -0.1673
0.8597 -0.0719 -0.2105
1.0686 -1.2025 -0.0636
0.8638 -1.3413 -0.0528
1.2181 -0.8023 -0.3379
1.4100 -1.0002 0.5207
0.7040 -1.2569 0.2469
0.5069 -1.2595 0.0942
1.4130 -0.8052 0.4591
1.1002 -1.2394 0.2587
0.8172 -1.2534 0.1441
0.7642 -1.3311 -0.3529
1.5352 -0.9767 0.4312
1.4518 -0.8600 0.5347
0.6259 -1.2573 0.2348
0.5010 -1.2035 0.1021
0.4397 -1.1121 -0.0038
0.4874 -1.2018 -0.0256
0.5491 -1.2907 0.0320
1.0434 -1.2224 0.0426
1.9166 -1.1641 0.4461
1.4563 -1.2810 0.5141
0.4572 -1.2469 0.1189
0.5186 -1.2107 0.0029
0.8737 -0.4067 -0.2348
0.8330 -1.2293 0.1579
0.7925 -1.2434 0.0266
1.2162 -1.0809 -0.2157
1.1961 -0.7757 -0.2831
1.1638 -0.7867 -0.2688
0.9013 -1.0812 -0.3039
0.9113 -1.2748 -0.2433
0.9853 -1.2069 -0.0813
0.3635 -1.2971 0.0287
0.4862 -1.2658 0.0338
0.5746 -1.2861 0.0751
0.8009 -1.2185 -0.2841
1.2202 -0.7113 -0.2668
0.3916 -1.2905 -0.0016
1.1216 -0.6916 -0.2166
0.9256 -0.4559 -0.2755
1.1409 -1.3305 -0.5728
1.5826 -1.0297 0.4188
1.4837 -1.0827 0.3844
0.6503 -1.2577 0.2248
1.2330 -0.9578 -0.4144
0.8260 -1.2166 -0.3449
0.8626 -1.1873 -0.0904
1.1400 -1.2741 -0.2346
1.0442 -0.9908 -0.4524
1.0546 -1.0387 -0.2013
1.0642 -1.0753 0.0594
0.5530 -1.3067 -0.1266
0.5655 -0.8408 -0.1636
0.4455 -1.2737 -0.0928
0.6397 -0.9964 -0.2994
0.4731 -1.2458 -0.0742
0.9661 -1.0523 0.3603
1.5690 -1.1648 0.3511
1.2671 -0.9587 -0.4304
1.3878 -1.5670 -0.1340
1.3227 -0.9255 0.5706
0.8694 -1.2709 -0.1003
1.1781 -0.5609 -0.3708
1.1107 -0.3548 -0.1292
1.3151 -1.5447 -0.0912
0.9640 -1.2308 0.1164
0.7938 -0.8789 1.0611
1.3691 -0.9060 0.8542
0.5373 -1.2664 0.5091
1.3792 -1.0160 0.6825
1.3112 -0.8043 0.7687
1.1146 -0.4487 0.9827
0.8044 -1.2578 0.5727
0.7448 -1.2728 0.8484
0.5520 -1.0865 0.5511
0.2501 -1.4469 0.5703
0.2981 -1.2110 0.5362
0.2679 -1.2629 0.4236
0.2639 -1.0976 0.4233
0.2814 -1.2472 1.3871
0.3459 -0.9964 1.1964
1.2646 -0.7336 0.4305
1.3009 -1.0049 0.7442
1.2078 -1.2466 0.8657
1.2150 -0.5102 1.2462
0.6794 -1.3454 0.8725
0.5681 -1.1969 0.5916
0.8340 -0.4940 1.2648
0.5223 -1.5238 0.9525
0.4344 -1.3180 0.6210
0.4047 -1.2378 0.6690
0.3905 -1.0555 1.1863
0.2901 -1.3135 1.2713
1.5143 -1.2115 0.8704
0.8942 -1.3802 0.6188
1.2180 -0.3631 0.6882
1.0937 -0.4446 0.9090
0.9144 -0.4187 0.9977
0.9106 -0.4594 1.1186
0.6654 -0.5356 1.3120
0.3648 -0.6573 1.0319
1.1549 -1.0938 -0.2806
0.7062 -1.2409 -0.3830
1.0728 -1.2429 0.2002
0.5634 -1.2673 0.3199
0.9364 -0.4534 1.2595
1.4218 -0.8702 0.6290
1.4030 -0.8404 0.5961
0.8612 -0.5050 1.1231
1.3491 -1.1143 0.5366
1.1621 -1.1886 0.6572
1.2894 -0.9816 0.7540
1.3840 -1.1736 0.6880
0.5727 -1.1442 0.5993
1.2635 -1.3252 0.7053
1.0435 -1.2772 0.5638
0.6022 -1.1559 1.0202
1.2840 -0.4336 1.0623
1.3396 -1.3191 0.7566
1.2626 -1.4227 0.9916
1.4176 -1.1311 0.4995
0.6511 -1.3329 1.1228
1.3654 -0.8345 0.6699
1.4194 -1.1321 0.5362
1.4459 -0.9679 0.5230
0.3502 -1.1469 1.1331
0.4129 -1.1339 1.1019
1.3636 -1.1449 0.9051
1.0734 -0.4960 1.8572
0.7170 -1.2508 0.8047
1.4246 -0.9862 0.8588
0.2146 -1.1139 0.9029
0.7073 -0.4531 1.3583
0.1534 -1.2462 0.7515
0.6301 -0.4007 0.9440
1.3110 -1.1409 0.4836
0.8312 -0.4173 1.3092
0.6132 -0.4124 0.9439
1.4808 -0.8544 0.5700
1.4696 -1.0741 0.5788
1.3386 -0.9247 0.5762
1.3244 -0.8157 0.6172
1.3003 -0.4497 0.8135
1.5458 -0.8840 0.6699
1.7260 -0.4317 1.2032
1.3057 -1.1477 0.8429
1.1984 -0.4838 1.2390
1.2142 -0.5963 1.3486
1.4139 -0.8150 0.5439
0.6868 -1.0927 0.5118
0.6694 -1.0775 0.8172
1.3684 -0.8081 0.5112
0.4157 -1.1343 0.6400
0.5996 -1.3631 0.9372
1.4810 -0.5137 1.4099
0.4272 -1.0429 1.0944
1.2795 -0.7971 0.7102
0.6611 -0.4183 1.1393
1.1283 -1.0016 0.7517
1.3504 -0.9504 0.7477
1.4036 -0.8716 0.5392
1.2933 -1.1987 0.7573
1.1855 -1.2477 0.6875
1.3488 -0.9598 0.7272
1.3048 -0.4577 0.8215
1.2978 -0.4582 0.8440
0.4154 -1.0891 1.0698
0.3295 -1.0055 1.2520
1.3954 -1.1712 0.5236
0.6810 -0.4324 1.1802
0.7048 -0.4419 1.3431
1.1783 -0.4565 1.2000

