-0.0142 -0.0684 -0.0190
0.0375 -0.0997 0.0127
0.0022 -0.0004 0.0024
-0.0069 -0.0649 -0.0329
0.0021 -0.0491 0.0630
-0.0051 -0.0074 0.0125
0.0668 -0.1650 0.0172
-0.0235 -0.0884 -0.0372
0.0074 -0.0263 0.0187
0.0523 -0.1791 0.1427
-0.0246 -0.0647 -0.0250
-0.0811 -1.2631 -0.4708
0.6261 -1.1508 0.3353
0.2208 -0.7781 0.4501
0.1890 -0.7804 0.4750
0.2081 -0.7709 0.4717
0.6923 -1.4393 0.7376
-0.1705 -0.6550 0.1753
-0.0787 -0.6691 0.1901
-0.1420 -1.1944 -0.4669
0.0208 -0.0412 0.0057
0.1096 -0.6387 0.2271
-0.0366 -0.6461 0.0769
-0.2182 -1.4579 -0.1993
-0.0361 -0.6640 0.1577
0.0219 -0.6273 0.0704
-0.2205 -1.1772 -0.2194
0.6288 -1.2412 0.3441
-0.2573 -1.1379 -0.2007
0.6108 -1.2291 0.3159
-0.1919 -1.2036 -0.2050
0.6304 -1.1716 0.3658
-0.1714 -1.1764 -0.1276
-0.2119 -1.2566 -0.3055
-0.0384 -1.2895 -0.2896
-0.1774 -1.2939 -0.0436
-0.4947 -1.1703 -0.2021
-0.2377 -1.1918 -0.2490
-0.2534 -1.2374 -0.2667
0.6561 -1.2810 0.6236
-0.5277 -1.2566 -0.2780
-0.0497 -1.2940 -0.2770
0.5580 -1.3145 0.7671
0.6409 -1.2078 0.3183
-0.2670 -1.2436 -0.4861
-0.7245 -1.1982 0.1069
0.1346 -0.6216 0.4500
-0.0688 -0.6609 0.2080
-0.4330 -1.1780 -0.2111
-0.0693 -1.1346 -0.0597
0.5273 -1.2391 0.6702
-0.5422 -1.2832 -0.2466
0.0978 -0.7198 0.5322
-0.4546 -1.2027 -0.1363
-0.0293 -0.6759 0.5596
-0.3604 -1.2108 0.0383
-0.4569 -1.2053 -0.0950
-0.0884 -0.7415 0.6506
-0.1008 -0.7484 0.6241
-0.3430 -0.6087 0.2567
-0.2917 -1.2366 -0.0564
-0.3389 -1.2291 -0.0997
0.1296 -0.6828 0.4813
-0.8092 -1.1968 0.2483
0.0054 -0.4869 0.4757
-0.5041 -1.2414 0.0609
-0.1717 -0.6518 0.3985
-0.1925 -0.6183 0.4602
-0.8110 -1.2663 0.2867
-0.6864 -0.8761 0.0487
-0.0813 -0.7928 0.6285
-0.0043 -0.6701 0.5521
-0.4632 -1.2352 -0.1427
-0.0667 -0.8432 0.6601
-0.5765 -1.2472 0.1201
-0.2769 -1.2200 1.0345
-0.6620 -1.2298 0.1710
-0.7159 -1.2495 0.1724
-0.5967 -1.2368 0.7585
-0.6139 -1.1953 0.6591
-0.7685 -1.2661 0.2471
-0.4275 -1.3041 1.5973
-0.6733 -1.1602 0.5287
-0.8420 -1.2456 0.1948
-0.5661 -1.1833 1.3158
-0.8396 -1.2749 0.5297
-0.8348 -1.2420 0.4898
-0.8858 -1.2701 0.4239
-0.9225 -1.1963 0.1179
-0.9308 -1.2015 0.0927
-0.6898 -1.2540 1.2741
-0.7596 -1.1834 1.0285
-0.1377 -0.7413 0.6135
-0.5249 -1.2227 0.7698
-0.5764 -1.2722 0.7568
-0.7074 -1.2590 0.2624
-0.9035 -1.1846 0.8796
-0.9656 -1.1583 -0.0453
-0.8811 -1.2185 0.2151
-0.8153 -1.2524 0.1273
-0.4077 -1.2324 1.2234
-0.0229 -0.7469 0.5706
-0.0853 -0.7117 0.6268
-0.2507 -1.2099 1.3418
-0.3842 -1.1722 0.8306
-0.8456 -1.2051 0.0693
-0.2331 -1.2113 -0.2029
-0.5707 -1.1352 -0.0839
-0.8958 -1.2410 0.2838
-0.9605 -1.2341 0.2595
0.2355 -0.8382 0.5701
-0.6604 -1.1150 -0.1222
-0.8709 -1.3338 0.5616
-0.6906 -1.2939 0.1329
-0.9289 -1.2146 1.1058
-1.2438 -1.3178 0.2552
-1.4677 -1.2840 0.2369
-1.4796 -1.2526 -0.0572
-1.4041 -1.2241 -0.1529
-1.2627 -1.2191 -0.3176
-1.4143 -1.2838 0.4009
-1.4778 -1.2672 0.2046
-1.1773 -1.2444 -0.1907
-1.3834 -1.2960 -0.3599
-1.2570 -1.3551 -0.4565
-1.7108 -1.3111 0.0528
-1.1726 -1.1915 -0.2889
-1.2206 -1.1995 -0.1804
-1.6384 -1.2566 0.0664
-1.2568 -1.1987 -0.1009
-1.1531 -1.1885 -0.1512
-1.1222 -1.2330 0.1550
-1.7035 -1.1371 0.4990
-1.1779 -1.1445 0.2013
-1.7615 -1.2106 0.1617
-1.0673 -1.2037 0.5504
-1.2700 -1.2212 0.7117
-1.2952 -1.2537 0.3807
-1.3977 -1.1926 0.4871
-1.3471 -1.2535 0.3660
-1.6785 -1.2377 0.1703
-1.4967 -1.2407 0.0247
-1.6653 -1.2462 0.0148
-1.2947 -1.2936 -0.1108
-1.5882 -1.1896 0.1104
-0.9397 -1.2046 0.4802
-1.5361 -1.2890 -0.2706
-1.6877 -1.2063 -0.1520
-1.3716 -1.2353 -0.1701
-1.2614 -1.2451 -0.1906
-1.1211 -0.9879 0.4606
-1.4948 -1.2468 -0.0377
-1.5648 -1.2431 0.0196
-1.0924 -1.3158 -0.2457
-1.3733 -1.2595 -0.0667
-1.0538 -1.2974 -0.1931
-1.4547 -1.2464 0.0229
-1.1868 -1.2587 0.0568
-1.3670 -1.2464 -0.0676
-1.2709 -1.3221 -0.2316
-1.3011 -1.3150 -0.2747
-1.5542 -1.1376 -0.1908
-1.2651 -1.2795 0.8262
-1.0150 -1.1890 -0.0195
-1.6059 -1.2536 -0.1516
-1.6962 -1.3044 0.0883
-1.1274 -1.2222 -0.2265
-1.4581 -1.2535 0.0454
-0.9362 -1.2603 0.1402
-1.1135 -1.2747 -0.1609
-1.2461 -1.2493 0.0638
-1.7283 -1.2473 0.6119
-0.8327 -1.2295 0.4496
-1.1689 -1.2203 0.3217
-1.0373 -1.2186 0.2241
-1.0504 -1.2191 0.2521
-1.1212 -1.1941 0.5490
-1.0430 -1.1538 0.6211
-1.7733 -1.2597 -0.1678
-2.4780 -1.2011 0.1921
-2.0061 -1.1660 0.0856
-1.0539 -1.1070 0.5646
-0.8447 -1.1966 0.4489
-1.2223 -1.2257 0.7641
-1.2009 -1.3282 -0.3519
-2.2701 -1.2249 0.3787
-1.2129 -1.3089 0.5558
-0.9625 -1.2731 0.2723
-0.9636 -1.1713 0.2359
-1.8730 -1.1971 0.2429
-1.2957 -1.3043 -0.1112
-1.0865 -1.1435 -0.1120
-1.2520 -1.2434 -0.0602
-1.0467 -1.2727 0.1827
-1.2185 -1.2309 -0.0531
-1.1158 -1.2577 0.1341
-1.0250 -1.1520 0.0150
-1.3432 -1.1240 0.0553
-1.1752 -1.1427 -0.0206
-1.1099 -1.2706 0.0075
-2.0168 -1.2034 -0.0476
-1.2852 -1.2212 0.6430
-2.1397 -1.1428 0.0742
-2.2579 -1.2448 -0.0074
-1.7592 -1.2506 -0.1876
-2.1764 -1.1423 0.0594
-2.2305 -1.1705 0.0657
-2.3085 -1.1891 0.0388
-2.1976 -1.2019 0.1066
-1.6981 -1.1137 0.0896
-1.2996 -1.2268 -0.1179
-1.0695 -1.2841 -0.2144
-0.8315 -1.1865 0.2917
-1.6930 -1.2550 0.2214
-1.0063 -1.1864 -0.1519
-2.1984 -1.1526 0.3885
-1.0104 -1.3097 -0.0919
-1.2092 -1.3081 0.0147
-0.9902 -1.2658 -0.0554
-0.8945 -1.2727 0.2396
-1.2071 -1.3092 0.0902
-0.8914 -1.3029 -0.0285
-0.9319 -1.2802 0.2247
-1.7500 -1.2301 0.4496
-1.2098 -1.3026 0.1705
-0.9144 -1.1822 0.1523
-1.0664 -1.2906 0.2846
-0.9985 -1.2531 0.1576
-1.1921 -1.1944 0.1064
-1.0322 -1.2502 -0.1839
-1.2107 -1.2348 0.3714
-1.4272 -1.3129 0.5089
-0.9967 -1.3062 -0.1781
-0.9509 -1.2744 -0.0200
-1.3940 -1.2716 0.4324
-1.8667 -1.1909 -0.0647
-1.6372 -1.1470 0.6194
-1.6447 -1.1878 0.5361
-0.9506 -1.2014 0.1115
-0.8888 -1.2441 0.0240
-1.7825 -1.2534 0.4693
-1.6057 -1.1868 0.1723
-2.1322 -1.1952 0.3762
-1.0250 -1.2429 -0.2337
-1.1822 -1.2049 -0.2706
-2.2015 -1.2403 0.0615
-1.3727 -1.2214 0.1591
-1.2428 -1.2292 0.1301
-1.0235 -1.2372 0.0865
-1.7377 -1.2942 0.0291
-0.9885 -1.2588 0.2483
-1.5510 -1.2498 0.1475
-1.0829 -1.2710 0.3054
-1.1797 -1.1800 0.1755
-1.5856 -1.2956 0.5555
-1.4827 -1.3375 0.6502
-2.1729 -1.2223 0.4457
-0.8071 -1.2849 0.3665
-0.8173 -1.2648 0.2421
-2.4049 -1.1203 0.0472
-2.2042 -1.1329 0.0440
-1.9595 -1.2446 -0.0622
-2.3328 -1.0843 0.1504
-1.2605 -1.1971 0.0601
-0.9178 -1.3837 -0.1419
-1.1495 -1.2690 0.0144
-1.3186 -1.2660 0.1140
-0.8808 -1.2333 -0.0300
-1.1609 -1.2726 0.2668
-1.7099 -1.1890 0.6525
-1.7513 -1.3194 -0.0389
-1.6276 -1.2233 -0.1232
-1.3521 -1.2633 0.1470
-0.8701 -1.2394 0.0328
-1.3931 -1.3016 0.1067
-0.7203 -1.3932 0.5577
-0.8038 -1.2275 0.5253
-1.1655 -1.2288 0.6996
-0.9941 -1.2492 -0.0074
-1.3654 -1.2000 -0.0089
-0.9660 -1.2619 0.1409
-1.0753 -1.2690 0.1939
-2.3988 -1.1573 0.1013
-0.7920 -1.1578 0.5799
-1.2582 -1.2024 -0.1333
-1.0015 -1.3209 -0.1608
-1.4797 -1.3172 0.0290
-1.5115 -1.3268 0.8541
-1.4165 -1.2652 0.0946
-1.4307 -1.2322 0.0631
-2.4326 -0.9897 0.0095
-1.1557 -1.3068 0.0971
-1.2200 -1.2962 0.2900
-1.5505 -1.0523 0.2925
-1.6144 -1.2602 0.1438
-1.2741 -1.3018 -0.0529
-1.9475 -1.4035 0.3485
-1.4059 -1.3010 0.7134
-1.8904 -1.2735 0.2761
-1.3453 -1.2366 0.6729
-1.3640 -0.9743 0.5352
-1.4184 -1.3169 0.4262
-0.9185 -1.1316 -0.0894
-0.9700 -1.0843 -0.0788
-2.0201 -1.2780 0.0439
-2.0789 -1.2728 -0.0160
-2.4055 -1.0388 0.0721
-1.4743 -1.3069 0.7600
-1.0672 -1.1826 0.4016
-0.8202 -1.1945 0.4965
-0.9324 -1.2448 0.6024
-0.9080 -1.2138 0.5450
-1.1446 -1.2059 0.1453
-1.5344 -1.2584 0.1193
-1.3016 -1.2066 -0.0974
-1.0235 -1.1987 0.0734
-2.2311 -1.1725 0.0847
-0.8469 -1.3511 0.0739
-0.8104 -1.2834 0.5343
-1.4439 -1.2823 0.0466
-1.3937 -1.2003 0.0607
-1.9498 -1.3548 0.4393
-1.7497 -1.2719 0.6070
-1.6962 -1.2534 0.6468
-1.1066 -1.2500 0.5711
-0.8221 -1.2389 0.4708
-1.4400 -1.2568 0.6513
-1.1389 -1.2097 -0.1069
-1.5849 -1.2709 -0.0612
-1.2449 -1.2903 0.8364
-1.0105 -1.2221 -0.1095
-1.5424 -1.1473 0.0860
-0.8157 -1.1438 0.4864
-1.3582 -1.2455 -0.0025
-1.0405 -1.4143 -0.0843
-1.2657 -1.2487 0.0232
-1.5746 -1.3310 0.0503
-1.3796 -1.2685 0.0961
-1.4619 -1.3588 0.3914
-1.6137 -1.2539 0.1627
-1.2334 -1.2970 0.3161
-1.6887 -1.2869 0.3347
-1.1006 -1.2461 0.2169
-1.1634 -1.2108 0.1564
-1.6024 -1.2733 0.2503
-1.0060 -1.2048 -0.0671
-1.7222 -1.2744 0.6285
-0.9437 -1.2264 0.3208
-1.4219 -1.2167 0.2779
-1.5335 -1.3249 0.0081
-1.7232 -1.2604 -0.1464
-1.7333 -1.2342 0.2563
-1.4494 -1.2706 -0.0886
-1.7715 -1.3295 0.6153
-1.2311 -1.0820 -0.0909
-1.1502 -1.0728 -0.0548
-1.1933 -1.2031 -0.0900
-1.4033 -1.1623 0.1081
-0.9008 -1.1968 0.0471
-1.1041 -1.2139 0.3278
-1.1502 -1.1620 0.2076
-1.0465 -1.2430 0.1927
-1.3421 -1.1145 0.0486
-0.7874 -1.2767 0.6666
-1.2484 -1.2490 0.0758
-1.4369 -1.0953 0.0308
-1.5640 -1.3408 0.5684
-1.1047 -1.1936 0.0440
-1.6509 -1.0299 0.7772
-1.0505 -1.1466 -0.1101
-0.9782 -1.0846 -0.0144
-1.2484 -1.2758 0.9240
-1.3030 -1.2258 0.0406
-1.1156 -1.2529 -0.0795
-1.2026 -1.1107 -0.1031
-0.9933 -1.1773 0.0411
-1.0533 -1.1914 0.2334
-1.3760 -1.2688 0.9493
-1.1808 -1.2786 0.6992
-1.2597 -1.2150 0.4482
-1.3202 -1.1855 0.3970
-1.2548 -1.2151 0.1817
-1.0621 -1.0847 -0.0610
-1.5396 -1.3122 0.1198
-2.0639 -1.2127 -0.0435
-2.0435 -1.2088 0.1569
-2.0619 -1.1869 0.0373
-1.0227 -1.1233 -0.1615
-1.2060 -1.3572 -0.0357
-1.4795 -1.3187 0.0542
-0.8696 -1.1560 0.0363
-0.7751 -1.2356 0.5769
-1.1730 -1.1597 0.0976
-0.9625 -1.1976 0.1013
-0.9701 -1.2033 0.1591
-0.9857 -1.2168 0.1644
-1.1496 -1.1833 0.2827
-1.2263 -1.3488 0.2741
-1.1820 -1.1434 0.0740
-1.4981 -1.2731 0.1281
-1.1117 -1.2186 0.1526
-1.3244 -1.2134 0.2423
-1.0248 -1.1899 0.2256
-1.0857 -1.1553 -0.1738
-1.0689 -1.2116 0.3216
-1.4645 -1.1400 0.1760
-0.9751 -1.1887 -0.0663
-1.1394 -1.2512 -0.1361
-1.3360 -1.2034 0.7642
-1.5266 -1.2703 0.7890
-1.7958 -1.3272 0.6709
-1.0667 -1.4819 0.9253
-0.9314 -1.3035 0.1393
-0.9282 -1.3255 0.1574
-0.9030 -1.3283 0.2455
-1.4563 -1.3218 0.0788
-1.3558 -1.2998 0.5858
-1.0464 -1.3142 0.2670
-0.9621 -1.3403 0.5475
-0.9704 -1.1767 0.4458
-1.2390 -1.2018 0.7454
-0.9335 -1.2855 0.7554
-1.0373 -1.3362 0.4428
-1.3056 -1.3032 0.6495
-1.2037 -1.2895 0.4486
-0.8441 -1.1997 0.2232
-1.4025 -1.3153 0.1337
-1.8251 -1.2619 0.1770
-0.8446 -1.1685 0.4398
-1.1989 -1.2395 0.5469
-1.2555 -1.2225 0.8601
-0.8157 -1.2458 0.3661
-1.3562 -1.2532 0.5388
-1.0692 -1.2732 0.4169
-1.2442 -1.2417 0.5241
-1.3946 -0.5731 0.6513
-0.9050 -1.2672 0.7334
-0.8007 -1.2139 0.3885
-1.3415 -1.2212 0.1546
-0.8191 -1.1996 0.3373
-1.1992 -1.2514 0.0262
-1.0399 -1.3254 0.6446
-0.7746 -1.0945 0.4481
-0.9494 -1.2476 0.1846
-1.4943 -1.4069 0.6644
-0.8790 -1.2240 0.2224
-1.3634 -1.2126 0.1291
-0.7269 -1.1755 0.6994
-0.8039 -1.1570 0.3522
-1.2219 -1.3269 1.0319
-1.7191 -1.2833 0.6495
-0.8064 -1.2097 0.5389
-0.9680 -1.2697 0.7123
-0.8868 -1.2775 0.9793
-1.0703 -1.1855 0.5985
-1.0414 -1.0077 0.5894
-1.3879 -1.0696 0.6895
-1.1725 -0.9164 0.2290
-0.9685 -1.3312 0.3733
-0.8746 -1.2381 0.3191
-1.0586 -1.3199 0.2202
-1.1959 -1.2437 1.0015
-1.1280 -1.2824 0.7722
-0.9821 -1.1668 0.8781
-0.9300 -1.1469 0.9074
-0.8070 -1.1868 0.5880
-0.9834 -1.2503 0.1457
-1.7170 -1.1436 0.6397
-1.7935 -1.2967 0.4498
-1.5580 -1.2553 0.5744
-0.9390 -0.9573 0.2816
-0.9899 -1.0710 0.2944
-1.4350 -1.4037 0.4054
-1.1548 -1.2388 0.5522
-1.4160 -1.2310 0.7390
-1.1971 -1.2455 0.1852
-0.9804 -1.2263 0.7454
-1.4629 -1.1756 0.4822
-0.7713 -1.2417 0.5310
-1.0178 -0.8047 0.1992
-0.8818 -1.0440 0.8961
-0.7565 -1.1718 0.6676
-1.1112 -1.0159 0.2484
-1.3767 -1.2166 0.6968
-0.9645 -1.3136 0.2542
-1.0930 -1.1174 0.3765
-1.1314 -1.1307 0.4401
-1.5290 -1.2519 0.5558
-0.7186 -1.1207 0.9251
-1.0283 -1.2345 0.9893
-0.8960 -1.3808 0.8976
-1.0337 -1.2373 0.6684
-0.9396 -1.1995 0.7376
-0.8139 -1.1897 0.9911
-0.9185 -1.0135 0.9659
-1.2039 -1.2791 0.4402
-1.0712 -1.2432 0.3045
-0.9235 -1.1418 1.1157
-0.7478 -1.1581 0.9807
-0.9896 -1.1310 0.9970
-1.2516 -1.1947 0.8013
-1.2067 -1.0705 0.5928
-1.3375 -1.1529 0.5231
-1.1658 -1.2435 0.3473
-1.1630 -1.2879 0.2534
-1.3315 -0.5148 0.9816
-0.8164 -1.2783 0.2422
-1.3332 -0.5704 0.7247
-1.0328 -1.2780 0.2518
-1.5132 -1.3203 0.8321
-1.5063 -0.5232 1.5807
-1.5527 -0.5053 1.2743
-1.3930 -0.5845 0.9762
-1.9115 -0.5315 1.1458
-1.6528 -0.5452 0.8942
-1.1773 -0.5313 1.4924
-1.2883 -0.1618 0.9276
-0.8863 -1.1788 1.1517
-1.4406 -0.5397 1.2345
-1.6760 -0.5688 1.2184
-1.6347 -0.5757 1.1780
-1.0587 -0.5084 1.2822
-1.0237 -0.5268 1.3434
-0.8990 0.1655 0.7148

