0.0839 -0.0490 0.2342
0.2567 0.0341 0.3855
0.0598 -0.0079 0.3416
0.1049 0.0316 0.3657
0.0207 -0.0138 0.3886
0.0468 -0.0261 0.4111
0.0146 -0.0031 0.5052
0.0427 -0.0501 0.4679
0.0359 0.0080 0.5247
0.0705 -0.0029 0.2836
0.1301 -0.0130 0.3217
0.1578 -0.0212 0.4032
0.0075 -0.0046 0.4060
0.1972 0.0172 0.5564
0.3977 0.0169 0.3184
0.2940 0.0233 0.3092
0.1681 -0.0255 0.3411
0.1888 0.0161 0.2902
0.0725 -0.0150 0.3111
0.1802 0.0106 0.2954
0.1483 0.0137 0.2967
0.1075 0.0007 0.4051
0.0319 -0.0234 0.3371
0.1987 0.0154 0.3253
0.0312 -0.0280 0.3034
0.0950 -0.0168 0.3439
0.3132 0.0082 0.3729
0.1007 -0.0213 0.3540
0.0365 -0.0308 0.3189
0.3268 -0.0219 0.4854
0.0498 0.0010 0.7194
0.0355 -0.0077 0.5813
0.1701 0.0030 0.3500
0.2986 0.0283 0.4035
-0.0708 0.0031 0.5858
-0.0027 -0.0007 0.6396
0.1575 0.0034 0.3567
0.0665 -0.0156 0.3745
0.0811 -0.0174 0.3304
0.1082 0.0128 0.5975
0.1456 0.0065 0.3613
0.0672 0.0019 0.5736
0.0030 0.0097 0.6252
0.2711 -0.0092 0.5150
-0.0624 -0.0103 0.5663
0.2105 0.0195 0.4022
0.0141 -0.0051 0.6296
0.0912 0.0030 0.6779
0.0582 -0.0197 0.4162
0.2013 0.0057 0.4142
0.1099 -0.0198 0.3783
0.2367 0.0186 0.4315
0.0473 -0.0171 0.4164
0.1357 -0.0200 0.4775
0.0808 -0.0077 0.3724
0.1800 -0.0008 0.4194
0.0866 0.0011 0.5498
0.0166 -0.0548 0.6186
0.1572 0.0101 0.4131
0.0600 -0.0163 0.4373
0.0967 -0.0147 0.4683
0.0911 -0.0061 0.3910
0.0276 -0.0066 0.5152
0.0386 -0.0076 0.4375
0.2421 0.0494 0.7344
0.1720 0.0208 0.4397
0.0269 -0.0116 0.4380
0.2043 0.0033 0.4590
-0.0582 -0.0061 0.5151
0.1671 -0.0040 0.6935
0.2303 -0.0052 0.7265
0.2197 -0.0210 0.5976
0.1602 -0.0125 0.5629
0.0871 -0.0072 0.5179
0.0553 0.0002 0.4996
0.1238 0.0148 0.4586
0.3880 -0.0202 0.5929
0.2528 0.0177 0.5981
0.3306 0.0125 0.5724
0.0387 0.0019 0.5223
0.1678 0.0073 0.5399
0.2876 0.0221 0.5745
-0.0002 0.0689 0.5152
-0.0403 -0.0203 0.4831
0.1383 -0.0170 0.5978
0.1081 -0.0120 0.5172
0.1652 -0.0068 0.5420
0.2107 0.0295 0.2969
0.3055 -0.0367 0.4074
0.1816 0.0108 0.5854
-0.0016 -0.0022 0.5748
0.2712 0.0189 0.4710
0.2697 -0.0378 0.6847
0.2436 -0.0222 0.5410
0.2071 0.0126 0.3184
0.3916 -0.0100 0.4887
0.1654 0.0026 0.3912
0.0962 -0.0058 0.2829
0.3077 -0.0238 0.4268
0.2774 -0.0188 0.4395
0.2828 -0.0313 0.4037
0.1334 0.0066 0.4870
0.4114 0.0012 0.3289
0.1987 0.0093 0.5663
0.2830 -0.0404 0.3779
0.3752 0.0207 0.3360
0.2834 0.0321 0.3294
0.1390 -0.0066 0.3350
0.3142 -0.0097 0.5202
0.2489 0.0011 0.5317
0.0287 -0.0129 0.4811
0.0595 -0.0193 0.5199
0.0437 0.0113 0.4312
0.2787 -0.0420 0.6877
0.0607 -0.0224 0.5484
0.2574 0.0048 0.5785
0.2161 0.0175 0.5687
0.0293 -0.0305 0.5751
0.0629 -0.0049 0.5997
0.0758 -0.0246 0.5406
0.2172 0.0052 0.6519
0.1432 -0.0175 0.4270
-0.0569 -0.0023 0.5473
0.2714 -0.0167 0.8022
0.0071 -0.0075 0.5854
0.0155 -0.0064 0.3959
0.2651 -0.0212 0.7911
-0.0450 0.0056 0.5375
-0.0619 0.0911 0.4881
0.1895 -0.0069 0.7161
0.0709 0.0011 0.5261
0.0072 0.0230 0.5611
0.1254 -0.0138 0.6564
0.0755 0.0165 0.5562
-0.0692 -0.0100 0.5508
0.1786 0.0148 0.5593
-0.0001 -0.0114 0.5465
0.2043 -0.0228 0.7805
0.2986 -0.0268 0.7269
0.0539 -0.0081 0.4852
0.2513 0.0115 0.3559
0.1518 0.0039 0.5369
0.2651 0.0171 0.5917
0.0673 -0.0038 0.6707
0.0859 -0.0119 0.5827
0.2049 -0.0141 0.6698
0.0901 0.0034 0.5845
0.3121 0.0423 0.3459
0.2861 -0.0263 0.4121
0.1548 0.0147 0.6645
0.1817 -0.0876 0.6418
0.2143 0.0269 0.5185
0.3053 -0.0194 0.6833
0.3193 -0.0146 0.6695
0.2505 -0.0164 0.4212
0.2532 0.0223 0.3495
0.0413 -0.0161 0.6669
0.0711 0.0215 0.6264
0.1453 -0.0127 0.5742
-0.0003 0.3302 0.4122
0.1666 -0.0089 0.5758
0.0656 0.0147 0.6228
0.0139 -0.0314 0.3241
0.1243 0.0045 0.3273
0.2195 0.0562 0.3676
0.0372 0.0037 0.5582
0.0561 -0.0245 0.3555
0.2374 -0.0174 0.5947
0.3782 -0.0388 0.5380
0.1416 -0.0041 0.7529
0.1582 -0.0130 0.5391
0.2263 -0.0202 0.5774
-0.0346 0.0008 0.6570
0.1851 0.0241 0.4445
0.1434 -0.0342 0.5038
0.1539 0.0079 0.5155
-0.0112 -0.0088 0.4020
0.3430 0.0251 0.4977
0.4049 0.0072 0.5210
0.1845 -0.0181 0.4685
0.0795 -0.0157 0.7296
0.1030 -0.0048 0.3948
0.0634 0.0060 0.7078
0.0306 0.0024 0.4107
0.2100 0.0276 0.4125
0.1649 0.0256 0.4059
0.0678 0.0142 0.5285
0.0466 -0.0045 0.6176
0.3171 0.0523 0.4454
0.0403 0.2523 0.2750
0.1768 0.0072 0.6804
0.3561 0.0284 0.6424
0.2015 0.0009 0.6952
0.1767 0.0019 0.6485
0.2938 0.0039 0.4049
0.2085 -0.0149 0.3771
0.0495 -0.0030 0.4539
0.2114 0.0014 0.6412
0.2313 0.0049 0.3616
0.0911 0.0015 0.5927
0.1954 0.0224 0.3377
0.0846 0.0172 0.5999
0.2985 -0.0142 0.4465
0.1882 0.0004 0.5830
0.0791 -0.0021 0.5435
0.2377 -0.0337 0.4808
0.1862 0.0186 0.4243
0.3545 -0.0235 0.5365
-0.0325 -0.0051 0.4891
0.3432 0.0282 0.4386
0.1995 -0.0267 0.3995
0.3842 0.0319 0.4252
0.2081 -0.0015 0.4913
0.3748 0.0248 0.5842
0.3694 0.0231 0.6295
0.1065 -0.0120 0.6140
0.0715 -0.0047 0.6246
0.1957 0.0040 0.6112
0.3821 -0.0042 0.4360
0.0892 -0.0329 0.3477
0.2429 -0.0135 0.3581
0.2819 -0.0236 0.7967
0.0810 0.0004 0.7387
0.2800 -0.0149 0.5041
0.2271 -0.0026 0.5040
0.1647 -0.0036 0.5849
0.1549 -0.0058 0.6212
0.0064 -0.0567 0.5279
0.1904 -0.0124 0.6646
-0.0363 -0.0074 0.6025
0.0697 0.0122 0.6165
-0.0642 -0.0039 0.5299
0.1774 0.0121 0.7409
-0.0250 -0.0005 0.5808
0.1191 -0.0007 0.7023
0.0214 -0.0043 0.6392
0.3892 -0.0210 0.2965
0.3789 -0.0359 0.3339
0.1935 -0.0290 0.6371
0.1100 0.0056 0.5809
0.1124 -0.0267 0.7265
0.1124 -0.0191 0.7169
0.2375 -0.0285 0.2805
0.0402 -0.0025 0.2333
0.0423 -0.0341 0.2394
0.1178 -0.0458 0.2729
0.0679 -0.0304 0.3370
0.2278 -0.0134 0.2949
-0.0372 -0.0071 0.4482
0.1268 -0.0083 0.2788
0.1555 -0.0124 0.3074
0.4329 -0.0292 0.3643
0.0257 -0.0341 0.2835
0.1491 -0.0097 0.4602
0.0256 -0.0259 0.3220
0.2681 -0.0407 0.4859
0.3282 -0.0187 0.2938
0.2598 -0.0318 0.5079
0.0215 -0.0061 0.4300
-0.0283 -0.0076 0.4614
0.0749 -0.0231 0.2396
0.1456 -0.0183 0.2533
0.1781 -0.0210 0.2686
0.0946 -0.0072 0.7399
0.0751 -0.0087 0.5901
0.0170 -0.0126 0.3083
0.0606 -0.0008 0.6883
0.0850 -0.0146 0.2537
0.0980 -0.0061 0.2617
0.0099 -0.0056 0.4145
0.2380 -0.0117 0.2959
-0.0376 0.0147 0.4489
0.1261 -0.0013 0.4432
0.2728 -0.0466 0.5822
0.1565 -0.0205 0.5537
0.2007 -0.0120 0.7037
0.0932 0.0119 0.2503
0.3625 -0.0203 0.5629
0.0866 -0.0054 0.6157
0.0941 -0.0073 0.5837
-0.0489 0.0073 0.6452
0.1770 -0.0240 0.7693
0.2942 -0.0220 0.7372
0.2359 -0.0427 0.3887
0.3883 -0.0298 0.4815
0.1392 -0.0208 0.4666
0.0560 -0.0297 0.2416
0.0055 -0.0175 0.3905
-0.0111 -0.0052 0.5812
0.2071 -0.0113 0.7170
0.1579 -0.0039 0.6704
-0.0129 -0.0110 0.4865
-0.0402 0.0005 0.5275
0.0472 -0.0273 0.2922
0.3489 -0.0225 0.4175
0.0177 -0.0080 0.6975
-0.0240 -0.0026 0.5232
0.0256 0.0369 0.4196
0.1005 -0.0422 0.7099
-0.0277 0.3252 0.5343
0.0203 0.0433 0.6532
0.1301 -0.0863 0.7576
-0.0096 0.0073 0.6808
-0.0657 0.1950 0.5774
0.0328 0.0021 0.5247
-0.0039 -0.0388 0.6077
-0.0211 -0.0514 0.6435
0.0901 -0.0655 0.7680
0.1557 -0.0133 0.6791

