0.5454 -2.7651 1.2407
0.3861 -1.8516 0.9293
-0.5672 -1.9802 1.6384
0.9630 -1.7465 1.2343
0.9704 -1.8061 1.1656
-0.0042 -0.2619 0.3688
-0.0184 -0.3397 0.4754
-0.6456 -1.9654 1.6437
0.0184 -0.0025 0.0159
0.0387 -0.2248 0.3109
0.0200 -0.0098 0.0331
0.0148 0.0015 0.0177
1.0239 -1.8153 1.3060
0.0348 -0.0346 0.0584
-0.0831 -2.2778 1.3162
-0.0069 -0.0717 0.0304
0.0870 -0.1271 0.1778
0.0475 -0.1639 0.2435
0.0302 -0.0414 0.0684
0.0321 0.0015 0.0342
-0.0220 -0.2299 0.3408
0.0495 -0.2412 0.3408
0.1378 -0.5578 0.8395
0.0365 -0.0021 0.0366
-0.2541 -1.0989 3.3613
-0.3257 -1.0961 3.5717
-0.3992 -1.1218 3.2842
0.1614 -0.8126 1.3238
0.5983 -1.7574 0.6806
0.5545 -0.8439 1.1518
0.1259 -1.6602 0.7398
0.5563 -0.8355 1.1709
0.5309 -0.8459 1.1603
0.6420 -1.1214 1.4760
0.4750 -0.8100 1.1179
0.3187 -0.8450 1.2006
-0.1234 -1.7884 0.8409
-0.2540 -1.6962 0.7358
-0.4901 -1.5019 1.3021
0.0965 -0.8908 1.2927
0.0215 -0.0390 0.0656
0.0158 -0.0131 0.0298
0.0114 -0.0177 0.0547
0.2513 -0.0711 0.3972
0.5786 -0.9205 1.2864
0.5028 -0.8440 1.1614
0.3784 -0.8418 1.2138
0.3231 -0.8433 1.2272
0.2969 -0.8223 1.1721
0.2496 -0.8051 1.2111
0.2107 -0.8473 1.2184
-0.1778 -0.8255 1.2550
-0.2126 -0.8488 1.2629
0.4208 -0.7279 1.9305
-0.2782 -1.9670 1.5328
-0.7544 -1.7614 1.1483
-0.0072 -0.1280 0.1904
0.0213 -0.0039 0.0221
0.5190 -0.7946 1.0548
0.5639 -0.8292 1.2203
0.3497 -0.8508 1.2015
0.1091 -0.8526 1.2706
0.0389 -0.8946 1.3057
-0.0235 -0.6792 1.0474
0.0433 -0.0801 0.1291
0.1949 -0.0332 0.3925
0.0818 -0.1138 0.3566
0.0851 -0.1150 0.3416
0.0632 -0.1359 0.4151
0.0858 0.0179 0.1699
0.2661 -0.8074 1.1547
0.4438 -0.7948 1.1031
0.0975 -0.1696 0.4674
0.1428 -0.3541 0.6319
0.0690 -0.0994 0.3383
0.0110 -0.2749 0.5609
0.0409 -0.1472 0.4260
0.1491 -0.2131 0.4598
0.1431 -0.2061 0.4837
0.1138 -0.3049 0.5646
0.0912 -0.1843 0.5030
0.0039 -0.5238 0.8392
-0.0769 -0.1556 0.8021
0.0990 -0.0353 0.2487
0.0338 -1.0466 1.5364
-0.0265 -1.0730 1.5440
0.1173 -0.0675 0.3007
0.1973 -0.2710 0.5139
0.0911 -0.1153 0.2708
0.1040 -0.0243 0.1925
0.0979 -0.0387 0.2530
0.1070 -0.2008 0.4642
0.2045 -0.9639 1.3403
0.1072 -0.0228 0.2064
0.1446 -0.0705 0.2412
-0.0392 -0.7710 1.1669
-0.0093 -0.6163 0.9495
0.0079 -0.8513 1.4249
0.1473 -0.1984 0.4457
0.1243 -0.1985 0.4561
0.0924 -0.2583 0.5229
0.0967 -0.1863 0.4767
0.1244 -0.1426 0.4208
0.3362 -0.4972 0.8377
0.1721 -0.1340 0.3715
0.1117 -0.1617 0.4348
0.0769 -0.3876 0.7319
0.0373 -0.4882 0.8083
0.1094 -0.0847 0.2504
-0.0618 -0.5695 0.6199
0.6507 -1.1023 1.6761
0.1411 -0.0506 0.2754
0.1614 -0.2035 0.5014
0.1787 -0.2473 0.5278
0.1881 -0.1288 0.3771
0.1882 -0.0774 0.2617
0.0614 -0.0017 0.2196
0.0757 0.0012 0.2310
0.1891 -0.1844 0.4901
-0.0585 -0.3589 1.2246
0.3526 -0.5766 0.8781
-0.1300 -1.6927 1.3410
0.1968 -0.1620 0.4867
0.2226 -0.1597 0.4174
0.2167 -0.1508 0.3877
0.2599 -0.2765 0.5384
0.1816 -0.1608 0.3756
0.2263 -0.1370 0.3013
0.1697 -0.4360 0.7950
0.0811 -0.2834 0.5642
0.2471 -0.5830 1.1876
0.1099 -0.3993 0.7144
0.3297 -0.1815 0.6040
0.1067 -0.0519 0.2637
0.1452 -0.4342 0.8403
0.0153 -1.1110 1.7861
0.2233 -0.1612 0.4442
0.2104 -0.2114 0.4903
0.1819 -0.3101 0.5983
0.2481 -0.3660 0.6834
0.2747 -0.5808 0.9420
0.2041 -0.3703 0.6323
0.0909 -0.0532 0.2815
0.3085 -0.2774 1.0249
-0.0116 -0.7977 1.2460
0.3124 -0.3430 0.6272
0.2727 -0.3772 0.6857
0.2873 -0.2146 0.4347
0.2612 -0.3830 0.6498
0.0668 -0.6407 0.6733
0.1007 -0.0470 0.2775
0.1196 -0.0970 0.3224
0.3652 -0.6273 0.9562
0.2518 -0.2556 0.5582
0.3045 -0.1817 0.4026
0.2692 -0.2786 0.4257
0.3031 -0.2580 0.5182
0.1991 -0.1356 0.3789
-0.0072 -1.3103 1.8102
0.2325 -0.1635 0.4012
0.2495 -0.2626 0.5203
0.1908 -0.5645 0.9046
0.3823 -0.8986 1.2538
0.3352 -0.1994 0.4578
0.3490 -0.1962 0.4931
0.2929 -0.2373 0.5236
-0.1380 -1.5172 2.4230
0.1893 -0.5735 0.9372
0.1682 -0.5331 0.9841
0.3245 -0.2514 0.5295
0.3776 -0.2428 0.5075
0.1450 -0.5208 0.9839
0.2937 -1.6664 2.0978
0.1933 -0.1641 0.4958
0.2312 -0.7493 1.1702
0.4168 -1.4182 1.8542
-0.0082 -1.0416 1.4937
0.5126 -0.5734 1.0361
0.3460 -0.2508 0.5613
0.3669 -0.2380 0.5642
0.2120 -0.6198 1.1168
0.3854 -0.3634 0.6809
0.1821 -0.6014 0.9930
0.3030 -0.2651 0.5642
0.1968 -0.6007 0.9904
0.2747 -0.3413 0.8124
0.1052 -0.5981 0.9633
0.9522 -1.5534 2.3199
0.4967 -0.6726 1.0719
0.3667 -0.2272 0.5704
0.4384 -0.3858 0.8179
0.3801 -0.3054 0.5908
0.3626 -0.2592 0.5559
0.1957 -1.1262 1.8575
0.2819 -0.3730 0.6920
0.6370 -1.2072 1.5881
0.4664 -0.3633 0.7047
0.4776 -0.5544 0.8915
0.4308 -0.6156 1.0229
0.4894 -0.7171 1.1200
0.9684 -1.9928 2.4495
0.7997 -1.2560 1.9880
0.3406 -1.1653 1.5710
0.4156 -0.6311 1.1157
0.6081 -0.6343 1.0628
0.4920 -0.3281 0.6101
0.3619 -1.0295 1.6435
0.3829 -0.6486 1.0110
-0.1333 -2.2067 2.8299
0.2378 -0.1609 0.4330
0.2477 -0.1235 0.3555
0.6573 -1.0335 1.7771
0.4789 -0.4086 0.7068
0.4449 -0.3225 0.6179
0.8410 -1.1719 1.4889
0.5595 -0.2567 0.6270
0.5183 -0.5451 1.0040
0.4327 -0.4450 0.8026
0.3663 -0.5123 0.8604
0.3643 -0.4128 0.7151
0.5181 -0.4351 0.8018
0.4743 -0.4476 0.8051
0.4016 -0.4882 0.8135
0.3542 -0.2816 0.5732
0.7701 -1.6442 2.0275
0.9298 -1.6865 2.2678
0.2825 -1.2235 1.8599
0.5891 -1.1124 1.4747
0.6085 -0.3718 0.6306
0.6428 -0.2797 0.6980
0.5441 -0.3828 0.6499
0.3876 -0.4832 1.3469
0.5526 -0.4027 0.6446
0.5504 -1.5885 0.8296
0.6631 -0.4556 0.7823
0.1404 -1.5985 1.1296
0.0156 -0.0389 0.0165
0.0248 -0.0595 0.0456
0.0892 -1.8142 1.3017
0.5798 -0.8777 0.8358
0.0015 -0.0238 0.0002
-0.0036 -0.0157 -0.0096
0.3504 -0.9315 2.0370
0.0283 -0.0497 0.0400
0.5810 -0.8650 1.2031
-0.2969 -1.4566 0.7309
-0.0165 -0.0332 -0.0007
0.5961 -0.8672 0.8083
0.3954 -0.4795 1.1437
0.1260 -1.6910 1.2058
0.2217 -1.8423 0.5773
0.2395 -1.0067 0.3392
-0.2585 -1.4467 0.5819
-0.2820 -1.9950 1.5783
0.2603 -0.3319 0.2584
0.6706 -0.8795 0.7863
0.2472 -0.3188 0.2790
0.1434 -1.5447 1.1639
0.5953 -0.8632 1.1254
0.1173 -1.5551 0.5094
0.2065 -0.3309 0.3320
-0.1780 -1.6137 0.7603
-0.1498 -1.2233 0.6276
-0.0375 -0.2160 0.2315
0.6656 -0.8679 0.7339
0.6438 -0.8586 0.9968
0.5946 -1.4797 0.3176
-0.1260 -1.7202 1.0468
0.8425 -0.8758 0.7071
0.8330 -0.8752 0.7436
0.9649 -0.8880 0.8562
0.1192 -0.0989 0.0394
0.7832 -0.8579 0.7260
0.7808 -0.8762 0.7128
0.8216 -0.8542 0.7887
0.7579 -0.8780 0.7294
0.7092 -0.8449 0.7114
0.7035 -0.8543 0.6970
0.3231 -0.2917 0.2550
0.7142 -0.8597 0.7612
0.6920 -0.8507 0.7282
0.6753 -0.8482 0.7989
0.6621 -0.8489 0.7753
0.6380 -0.8634 0.7790
0.2492 -0.3552 0.3717
0.7330 -0.8547 1.0351
0.3408 -0.8808 0.9466
0.2064 -0.4777 0.4677
0.4420 -1.4849 0.3609
0.3936 -1.5047 0.3937
0.2444 -0.1758 0.0849
0.8765 -0.8816 0.6603
0.9127 -0.8548 0.7323
0.8801 -0.8594 0.7257
0.2644 -0.3458 0.3381
0.5379 -0.6898 0.6941
0.6602 -0.8879 0.8657
0.2315 -0.2720 0.2267
0.8828 -0.8830 0.6240
0.7301 -0.8576 0.6897
0.2683 -0.2195 0.1976
0.2653 -0.1907 0.1436
0.3057 -0.8718 0.9521
0.3524 -0.8828 0.9379
1.2407 -1.1267 3.3157
-0.1073 -0.9438 1.6465
1.4819 -0.7832 3.0419
-0.3438 -1.6509 0.8483
0.1613 -1.6026 1.1200
1.1038 -0.6800 2.9754
0.5953 -0.6185 3.1100
1.3437 -0.7233 3.4274
0.0082 -0.0283 0.0061
-0.3153 -1.6649 1.0523
0.7829 -1.1491 3.2284
0.7348 -0.7549 3.3129
0.6443 -0.8893 1.2120
0.2308 -0.1414 0.0805
0.1697 -0.1777 0.1042
0.3054 -0.2210 0.1099
0.2437 -0.1128 0.0558
0.6707 -1.2152 3.5322
0.0472 -0.1102 0.0826
0.0467 -0.1079 0.0871
0.0701 -1.7846 1.3180
0.3569 -0.8672 0.9215
0.2577 -0.1656 0.1011
0.2357 -0.0340 -0.0052
0.2159 -0.3489 0.3901
-0.0907 -0.9580 1.7503
-0.2412 -0.7595 0.3395
0.3098 -0.2024 0.0774
0.2717 -0.2097 0.0960
0.9416 -0.8803 0.6227
0.1856 -0.0766 -0.0271
0.2573 -0.3252 0.2743
0.1879 -0.0635 -0.0392
0.1643 -0.0677 -0.0289
0.1504 -0.0206 -0.0880
0.1614 -0.0366 -0.0734
0.1559 -0.0273 -0.0654
0.9479 -0.8799 0.5864
0.9234 -0.8679 0.6502
0.1629 -0.0329 -0.0748
0.1485 -0.0146 -0.0904
0.1514 -0.0189 -0.0877
0.2493 -0.3442 0.3703
0.1609 -0.0425 -0.0861
0.1652 -0.0511 -0.0469
0.1559 -0.0382 -0.0630
0.1670 -0.0397 -0.0727
0.1501 -0.0407 -0.0527
0.1648 -0.0351 -0.0647
0.1625 -0.0414 -0.0575
0.1641 -0.0444 -0.0564
0.1446 -0.0352 -0.0636
0.1555 -0.0566 -0.0419
0.1568 -0.0429 -0.0621
0.2419 -0.1612 0.0786
0.4043 -0.2927 0.2237
0.1679 -0.0150 -0.0812
0.1888 -0.0617 -0.0481
0.1609 -0.0530 -0.0485
0.1943 -0.1257 0.0613
0.2942 -0.2418 0.1948
0.3672 -0.0647 0.1695
0.2891 -0.2374 0.1987
0.3235 -0.2986 0.2716
0.2966 -0.3287 0.3205
0.1695 -0.0445 -0.0630
0.1604 -0.0675 -0.0229
0.1734 -0.0533 -0.0502
0.1623 -0.0427 -0.0600
0.2195 -0.2162 0.1493
0.1848 -0.0676 -0.0217
0.1899 -0.1807 0.1030
0.1611 -0.0400 -0.0442
0.1645 -0.0987 0.0074
0.1456 -0.0293 -0.0746
0.1410 -0.0144 -0.0419
0.1641 -0.0470 -0.0596
0.1639 -0.2067 0.0345
0.9474 -0.8357 0.5900
0.2992 -0.8394 0.9410
0.9751 -0.8330 0.6350
0.7349 -0.8117 0.6857
0.6259 -0.8105 0.7699
0.7473 -0.8475 0.6982
0.3082 -0.8239 0.9452
0.1228 -0.0858 -0.1366
0.6195 -0.8198 0.7540
0.3414 -0.8379 0.9147
0.6503 -0.8276 0.7860
0.7733 -0.8285 0.6846
0.3410 -0.8163 0.9446
0.9131 -0.8378 0.5819
0.9343 -0.8032 0.5721
0.9135 -0.8237 0.5927
0.8856 -0.8160 0.5981
0.5922 -0.8204 0.8006
0.5199 -0.8381 0.8451
0.4540 -0.8321 0.8729
0.0444 -1.3464 0.5118
1.2091 -1.4652 0.4347
1.0572 -1.2171 0.3755
0.0850 -1.5973 1.1636
0.9489 -0.8270 0.6385
0.8048 -0.8327 0.6601
0.4049 -0.8414 0.8838
0.5963 -1.4672 0.3091
0.1628 -0.0457 -0.0584
0.5755 -0.8338 0.8054
1.2172 -1.5294 0.4250
0.8108 -1.5735 0.4385
0.8217 -1.5094 0.3894
0.6609 -1.6122 0.3902
1.0042 -1.5662 0.4656
0.1268 -0.0457 -0.1108
0.6735 -1.4573 0.2585
0.9807 -0.8225 0.6402
0.8063 -0.8164 0.6461
0.3721 -1.5358 0.6423
0.1014 -0.0464 -0.1865
0.1028 -0.0579 -0.1611
0.0945 -0.0355 -0.2007
0.1188 -0.0907 -0.1240
0.1178 -0.0912 -0.1256
0.0767 -0.0834 -0.1643
0.1049 -0.0706 -0.1205

