2.3339 -1.9852 1.9274
1.8699 -2.2037 1.9502
1.2310 -0.9514 0.4080
0.9558 -2.1590 1.0786
1.1328 -1.4670 1.0396
4.6853 -3.8721 2.9592
2.7272 -2.3876 1.5043
8.6173 -11.6147 12.1485
4.6552 -2.8800 1.1985
1.4767 -2.1134 0.0483
3.1280 -3.6127 0.4880
4.6394 -4.1308 2.3356
5.3282 -4.2225 1.2098
3.9167 -3.4812 1.0031
2.4075 -1.0909 2.4362
5.1714 -4.6117 1.2019
3.9312 -4.2216 0.6346
3.8966 -2.7280 3.8147
3.8156 -2.8217 2.1736
7.0444 -11.2195 6.5128
3.9011 -3.4710 3.7106
3.8648 -3.8176 3.8139
5.7715 -5.6059 1.4542
2.0374 -1.8329 0.6559
0.7320 -0.5980 0.1257
0.6640 -1.4291 0.5545
2.9542 -2.4036 0.1517
6.9345 -12.5173 -0.7738
2.7172 -3.0842 0.5703
5.2895 -4.1284 1.4852
5.3664 -4.9827 2.3254
5.5094 -6.1644 2.9094
3.2396 -9.9795 3.1908
4.5326 -5.8236 4.2678
2.8068 -1.3926 0.3622
5.5130 -4.4347 0.6419
4.5545 -2.8977 1.5695
4.3033 -4.4989 2.4273
5.0568 -5.0738 3.3751
4.5191 -8.8506 3.9383
4.0744 -9.5774 3.9622
4.1549 -3.5041 3.7352
3.2975 -4.6037 5.7588
4.2328 -7.8354 4.0184
4.9037 -7.0043 2.9263
5.0350 -7.7033 3.8321
4.5750 -9.0294 2.3412
1.4291 -1.9081 1.6455
3.3880 -2.0103 1.4357
0.6246 -0.2950 0.1611
1.5632 -0.9614 0.5641
4.2347 -5.4935 3.9752
3.7191 -4.4033 5.1182
4.4131 -7.1302 4.1549
8.7386 -10.7575 8.4459
3.5826 -2.7701 3.2861
5.2219 -4.3756 1.9490
3.2804 -1.8006 1.2934
3.5760 -2.6456 1.4755
3.6268 -5.0716 3.5144
3.7219 -7.5496 3.7387
2.1330 -1.3007 0.0616
14.6082 -14.8865 1.3612
6.4019 -8.9999 3.3828
5.5224 -4.6692 1.1155
5.3856 -3.8750 1.4322
5.9232 -6.2257 1.2708
4.2678 -2.6818 1.4790
4.7529 -3.6955 2.1210
4.3757 -9.1798 3.1778
4.0690 -4.0512 3.1690
2.7282 -11.0079 3.3589
3.3486 -3.6489 4.2705
5.3238 -11.5399 8.8495
3.4347 -4.9099 5.2809
4.5698 -8.1515 4.3713
3.5582 -2.9238 3.3240
14.4017 -21.2020 -1.3753
5.9967 -6.7220 1.0979
5.8373 -6.2462 1.0919
6.4322 -5.8133 0.8489
5.9120 -6.4974 0.9629
3.4222 -2.6448 3.3861
4.0831 -5.2134 4.3571
2.1570 -8.8397 5.2913
2.3331 -7.3977 5.1792
4.3214 -2.4509 -0.0411
3.5471 -2.0118 1.1437
2.2441 -0.9299 2.5701
2.2744 -1.9138 0.8780
6.5876 -7.7197 0.9411
5.3998 -3.6582 1.3729
5.6012 -7.2820 0.8097
6.0177 -4.6387 1.4625
5.9278 -5.6057 1.5304
4.5424 -3.0973 1.4312
1.1447 -7.1912 -0.7875
4.8187 -3.4915 2.0194
5.4704 -5.3833 2.1779
5.3164 -4.5590 2.2504
6.6408 -11.2368 5.1933
3.9983 -10.1155 3.6039
3.5044 -2.8253 3.1823
4.4676 -6.7854 4.1935
4.3001 -5.0396 4.5037
6.2279 -6.9596 1.2230
4.2423 -2.5021 1.6200
3.6486 -9.6505 3.5602
5.2394 -7.8592 3.2227
7.9412 -6.2178 -0.7813
4.0629 -2.1533 0.1347
4.9091 -4.0059 2.5123
4.7141 -8.2480 4.2945
4.6079 -2.3630 0.4654
4.1255 -2.3172 1.3024
3.8537 -2.3117 1.9297
4.3957 -3.8212 4.0478
3.9426 -3.6171 3.7871
4.5585 -4.6414 4.6634
4.4059 -4.0425 3.0182
4.4948 -2.8881 1.5391
4.1726 -3.7328 3.0289
4.0548 -7.9368 2.9303
6.3637 -9.0313 0.6069
12.6791 -11.8536 2.4753
0.6674 -3.2086 -0.2372
6.9242 -5.9700 1.8912
5.3834 -7.6285 2.1231
13.9573 -16.7911 7.4422
3.0539 -13.2842 2.6070
3.6097 -8.8906 3.5490
6.2009 -18.4350 6.4793
6.0573 -5.6663 1.6291
7.7637 -8.6867 0.3360
4.4298 -8.6264 4.5701
3.2812 -9.4903 6.8769
5.2717 -3.0278 -1.0277
5.4838 -2.8672 -0.4574
6.2052 -5.4224 0.5664
6.4987 -6.6432 1.1192
5.3141 -6.7628 2.5280
4.8672 -7.6294 2.9713
4.1603 -3.7277 3.9864
4.0957 -4.3320 4.0118
4.5445 -8.4375 4.5281
3.0746 -9.4805 3.4478
9.2143 -23.5219 8.6469
3.8267 -4.2851 4.0688
4.0044 -7.6016 4.6189
3.7265 -4.7725 5.9439
1.6511 -0.8805 3.2889
4.6051 -3.0935 1.5464
9.8360 -12.7671 6.2702
4.0858 -4.7664 3.9927
4.5810 -3.5801 2.0842
3.9999 -3.9981 3.9772
4.5623 -2.8014 1.3734
4.8392 -6.2216 5.1857
10.9753 -11.1954 1.2611
5.8353 -11.0665 -0.5859
8.2802 -6.8268 1.0808
3.9792 -3.1178 1.3512
5.6261 -5.5257 1.4962
4.0327 -2.2735 1.6771
3.7824 -2.3900 1.6220
4.3401 -3.5997 1.5599
6.3866 -8.2814 0.7167
4.3059 -2.6833 1.0982
4.5491 -3.2943 1.0496
4.7775 -3.2488 1.3329
5.9387 -14.7356 -0.7726
3.1355 -2.4925 1.1194
5.4930 -5.8824 2.8181
4.7136 -4.2680 2.8435
4.6725 -3.9472 4.9104
6.3106 -6.4739 5.0528
9.6116 -12.4746 12.3995
5.5087 -6.6294 7.8286
5.8561 -9.4219 4.7073
6.5832 -8.1560 6.3699
8.2878 -8.9126 0.9155
6.5159 -8.8660 0.6138
5.4105 -7.8096 2.7422
5.0386 -3.7595 1.5454
5.3440 -4.0821 1.5874
8.7967 -9.2456 0.5968
4.6811 -2.2138 -0.4094
6.8313 -7.3041 0.6106
6.4968 -12.1124 -0.5017
5.9514 -5.3528 2.7008
4.6682 -4.9482 4.3613
5.6441 -3.8929 1.5572
3.1514 -10.8475 3.4390
1.8386 -3.6599 0.2393
4.3871 -2.7341 1.7013
8.5745 -9.6323 4.7249
3.5826 -4.6923 0.5585
1.9477 -1.3726 0.0380
6.6722 -6.3448 1.8839
5.5321 -7.8559 3.6165
3.9709 -9.8186 3.9434
3.6171 -8.7054 3.5583
4.2669 -9.5009 4.1268
6.5625 -4.7054 -0.0393
5.5187 -4.9352 0.2716
6.3492 -7.0180 0.9197
3.6418 -3.2408 1.0704
6.2155 -5.8582 4.0407
4.9539 -4.8015 4.3185
5.3277 -4.5839 5.2202
4.5487 -7.2311 4.6555
6.1487 -6.2186 6.4423
6.0741 -13.5298 5.7836
4.8227 -5.1307 3.9719
6.7491 -6.2567 1.5758
5.6931 -5.7465 1.4369
4.0463 -2.5261 1.5980
5.7141 -4.8023 2.9244
6.2520 -5.9286 0.4556
12.5190 -12.3753 1.7320
5.8955 -4.8263 1.3280
5.9885 -6.7944 1.2482
5.7098 -5.1638 0.4185
5.5791 -5.1994 1.5208
5.4702 -3.5934 -0.2505
5.2329 -4.8929 5.3519
6.8696 -7.9142 6.8962
5.8602 -14.1080 5.5394
5.7868 -7.8318 6.0150
4.0216 -13.1227 4.7880
4.7000 -9.1800 7.8216
5.4015 -16.5975 5.5341
8.5595 -9.7476 0.7983
11.1091 -8.0059 -1.1477
7.2087 -7.1119 1.1046
4.7263 -3.1578 1.4037
5.9341 -5.0982 1.9942
5.5905 -9.7173 5.1310
4.4879 -6.4239 8.6124
5.7266 -4.4691 1.5541
9.4494 -8.9425 -1.0629
5.6070 -3.9337 1.1219
8.7630 -12.5991 0.3498
6.5056 -5.0833 1.6241
7.3778 -6.3565 1.5862
6.4880 -5.1174 1.8308
6.2758 -15.6735 -0.6255
7.9659 -10.8676 1.7908
5.3764 -4.3048 2.4833
6.1338 -5.7112 4.2194
8.9443 -15.9463 6.2408
5.8955 -11.5740 4.9474
5.3158 -6.9500 5.1767
8.4929 -17.1758 7.1264
7.2565 -11.9962 7.1232
5.8748 -6.6166 6.2205
6.4152 -7.1623 7.2777
7.1585 -8.3832 11.0965
5.8591 -7.3180 8.3790
6.9225 -11.0800 6.5273
6.5877 -5.1405 1.4255
7.0694 -9.9822 4.2504
9.2098 -17.5270 8.3773
9.2936 -16.6665 8.5022
6.6622 -7.6972 6.6044
4.2700 -4.3138 3.7859
6.0643 -4.6902 1.6598
8.4722 -6.5563 -1.6396
8.2733 -14.5388 -1.2502
5.0957 -4.1186 2.5490
6.3236 -7.5762 6.9524
5.8434 -4.7337 1.0831
7.3167 -6.2090 1.2820
4.4632 -5.7785 1.7521
6.3902 -6.3126 2.9801
8.6298 -10.6175 3.4840
5.7625 -6.4204 6.9247
11.8262 -11.6722 1.0377
12.2997 -14.0547 0.9928
4.9176 -2.8906 1.5260
12.0502 -14.3833 -1.3408
6.9312 -5.1766 0.9251
5.0822 -3.6190 1.1153
8.6319 -10.3949 3.0135
6.4911 -5.6835 3.1480
10.6696 -19.5170 7.0572
4.0670 -4.2404 5.0921
1.6747 -8.1304 5.7357
9.1901 -8.9194 1.2694
11.5782 -10.3927 -1.5041
14.6345 -14.3327 1.0042
4.9912 -3.5536 1.0985
6.8816 -5.3323 1.3206
10.3918 -9.4214 1.1622
6.3924 -5.4110 1.4317
9.4044 -12.5342 3.9971
5.7779 -5.4215 6.1052
9.5817 -26.8760 6.7496
9.4468 -19.3891 8.3810
3.8905 -23.0050 7.4776
6.5937 -5.9534 3.6911
8.5501 -12.1389 6.5140
8.3300 -12.1185 6.6875
10.4829 -21.0752 9.4002
5.5443 -4.4609 1.2899
5.6474 -6.7752 6.2622
15.1745 -10.2915 -2.9290
9.0766 -7.7625 1.8963
6.6918 -7.9001 7.3178
7.8350 -10.6717 7.9887
11.3754 -14.2807 0.6661
12.3061 -11.6257 1.5858
4.9007 -4.0179 1.1227
10.7589 -12.8024 2.3959
4.8677 -4.5746 2.3671
8.0288 -7.5806 3.9067
14.5146 -20.2000 12.6743
2.6551 -5.8693 5.9756
8.9053 -20.8841 8.2727
9.1573 -16.9283 15.4818
9.2913 -14.9261 8.6026
9.9874 -12.7198 6.0817
10.2724 -12.7193 5.8279
5.1466 -13.4440 11.9316
12.3642 -12.6454 0.9727
11.2835 -10.9651 0.4538
6.1362 -5.0340 2.5335
4.0339 -3.1563 0.7533
-0.8019 -3.9275 -1.0874
4.5644 -4.9236 6.2183
18.0009 -17.6498 1.5822
5.3682 -4.9456 2.2915
10.8329 -12.1522 3.7298
5.9316 -5.9757 4.4049
7.7623 -7.9064 8.4135
12.8660 -19.2657 14.3945
10.6375 -26.2389 10.3145
7.6418 -8.2289 9.9118
8.4953 -13.9180 14.2555
6.0204 -12.9105 13.4016
10.8319 -13.1438 5.3721
10.1643 -19.3326 9.2614
9.8104 -14.4297 9.3800
12.3087 -12.6223 1.5536
2.2159 -2.6888 0.7909
5.5640 -8.2920 1.6411
9.2589 -7.8201 3.4309
3.3917 -3.5709 5.2477
5.6529 -5.2193 2.6881
11.4925 -8.9834 -1.1160
3.7946 -3.4909 0.5649
3.0993 -4.3672 0.2939
12.6475 -15.4204 2.2786
4.5284 -5.5023 2.3360
10.3254 -16.9977 8.5660
6.6603 -6.6042 7.4342
5.9915 -6.5777 7.8263
9.0533 -23.5593 8.6502
8.9959 -23.8276 8.9771
5.3993 -5.4399 0.5801
10.2089 -13.9670 7.9440
1.0261 -3.7348 -0.1470
6.1109 -4.9960 1.3156
14.5411 -11.8785 -2.1874
14.2828 -21.1677 -0.7253
4.2121 -4.5185 2.3007
7.3962 -6.5280 3.4152
5.9093 -5.2517 3.1644
5.7520 -9.2358 2.8022
5.8558 -6.1952 5.6856
6.7391 -6.0350 -0.2774
12.7680 -17.5688 0.5953
11.3852 -19.0663 7.9355
8.7904 -10.3306 11.2510
10.2995 -14.2920 8.5285
9.0327 -16.3279 8.3000
10.9416 -18.7038 10.0986
9.1234 -11.5301 5.8796
10.2521 -9.6574 -0.1168
7.4719 -6.5503 -0.0539
14.2944 -17.0287 0.2486
6.6439 -9.0159 7.2410
9.8475 -14.7055 9.1434
11.2349 -20.9755 19.8248
4.1270 -3.7037 -0.2996
11.3232 -11.2705 -0.3618
8.5684 -6.3928 -0.6950
1.4534 -2.6173 0.3854
3.5900 -2.0327 -0.8792
4.7169 -4.1143 4.7816
6.2373 -3.4740 -1.1088
8.8460 -7.5902 -2.2592
6.6278 -5.7647 1.4561
6.6827 -11.0681 4.9667
7.7728 -6.0309 -0.1341
6.3597 -4.1123 -0.8137
7.4283 -5.2330 -0.8119
8.0011 -14.9912 2.8489
5.1983 -6.8821 7.9210
3.1168 -2.5216 1.1789
3.5114 -3.2906 4.5548
5.0097 -5.8326 6.1637
3.7295 -2.6458 -1.3361
9.8680 -13.0290 0.1421
5.7825 -4.6449 1.0058
5.0485 -4.3561 2.1302
5.2140 -4.7326 3.3758
4.1159 -4.0531 4.5079
4.9410 -5.0270 5.2730
4.4650 -4.2860 5.1261
4.8603 -6.6424 8.8353
3.9034 -3.0823 0.9836
6.4441 -5.2426 1.5163
6.3006 -5.6197 2.8919
4.0919 -3.6621 1.5896
5.1519 -5.0377 5.1208
3.7092 -21.7602 6.6824
10.3552 -8.8627 -2.1764
5.3222 -9.6419 10.5138
-3.6131 -3.7032 -2.2722
3.6258 -3.8681 4.7562
3.3119 -3.6438 4.7234
2.2739 -2.8537 4.0626
10.3779 -8.8264 -3.4901
8.0192 -6.4314 -1.1107
7.2592 -6.1112 0.1049
2.1065 -3.0063 -0.0013
10.0657 -9.7230 0.5932
-2.8047 -4.1809 -1.7859
9.9840 -10.2855 1.1009
10.7368 -22.5174 -0.1609
3.7622 -4.2950 3.0718
3.3575 -3.9437 4.6300
4.3070 -4.5198 5.5353
5.3201 -5.7775 6.6226
4.4709 -12.6957 10.7028
0.8257 -2.6365 -0.0126
7.5456 -6.8538 0.6442
9.0224 -6.8986 -2.3253
8.8366 -8.8493 -0.0796
0.9523 -2.7495 -1.8333
12.9344 -14.5015 -2.2588
5.1956 -7.2590 10.0863
9.1385 -15.1760 8.4895
4.5610 -4.2009 -2.1151
3.4377 -4.0246 -0.2558
9.0487 -9.3077 -0.0174
15.7111 -21.8697 -1.0858
6.7638 -6.5891 0.6321
5.3378 -12.3094 -1.4922
0.4449 -3.7920 -0.5278
4.0895 -4.8467 0.3032
-0.6578 -2.9693 -0.5423
6.2365 -6.3809 0.7489
4.3590 -5.4083 0.7094
6.7681 -7.1756 1.2390
6.2223 -6.8554 2.2184
6.9012 -7.6374 2.8789
8.9580 -10.4298 3.6845
9.8228 -13.2503 4.0416
5.4277 -6.5912 5.5681
6.1714 -8.4903 9.7250
7.8917 -10.2499 9.3793
15.5504 -33.4509 15.2312
7.5796 -33.7959 9.7461
8.5124 -8.1184 0.8860
9.5690 -9.9169 0.3843
0.8902 -4.2859 -0.3551
6.6606 -13.6334 13.5745
14.7599 -14.5473 1.5307
13.7872 -19.3459 -2.0280
0.5082 -3.2371 -0.7124
7.5835 -6.8537 0.6776
10.5717 -10.0917 2.0369
10.7997 -10.6860 1.3035
15.4318 -15.8446 7.0655
7.9462 -11.2337 7.1589
4.6860 -7.5107 12.2931
-0.9005 -3.1734 -2.8516
6.3929 -6.2928 -1.1054
4.1763 -5.2069 -0.5740
9.9341 -10.5203 -0.3913
3.1188 -6.2318 -0.2976
1.0215 -4.3043 0.5670
0.4948 -3.8861 0.6087
10.5481 -17.6057 3.5816
3.5204 -6.1402 7.4037
2.4453 -5.3972 5.0379
12.0878 -21.4420 10.0484
5.3171 -8.3500 10.2395
9.0400 -12.4183 9.6080
9.5293 -14.5146 9.9701
4.4547 -6.7043 8.2829
8.9417 -9.4380 0.3698
4.3804 -6.9267 6.4434
13.1783 -13.1405 1.9533
3.9549 -6.2260 4.9482
6.9943 -13.6672 13.7256
9.7003 -10.1402 -3.1614
5.8095 -5.9180 -1.9926
-2.4453 -3.0460 -1.5794
0.6191 -3.8328 -0.5505
-2.1162 -3.3322 -1.0157
0.1170 -3.0662 4.1167
5.2994 -11.2276 9.4657
5.2688 -9.9811 12.7602
9.1538 -11.4384 4.4912
8.5764 -7.1792 0.7943
16.6511 -12.2682 -4.6227
1.1046 -3.9699 -0.6108
-5.7671 -3.2818 -2.3425
7.7914 -7.3843 2.1050
7.6562 -9.5000 3.6782
7.1494 -10.1217 8.5978
11.8459 -25.1132 11.8907
14.3767 -34.6881 15.2838
7.3897 -34.4167 9.7814
12.2526 -18.1263 19.3132
3.6660 -6.8857 11.2167
12.3571 -28.0140 11.7845
14.0862 -11.5004 -2.4211
9.2105 -8.6920 0.3573
4.7508 -5.5339 2.2728
5.3841 -6.6478 2.8741
10.9486 -17.5514 12.2526
4.5556 -5.0905 0.7546
5.1164 -6.9634 0.2017
0.5388 -3.7787 -0.1928
5.0331 -5.3330 1.1694
6.4910 -7.7572 0.9748
9.8742 -10.0388 6.3787
15.9650 -26.8476 13.7086
13.9175 -37.9458 11.6565
10.8021 -36.5512 13.3226
12.5246 -22.6951 11.3591
13.3827 -18.6838 12.5557
10.6340 -13.1988 5.8845
16.3501 -13.0092 -4.7726
13.0136 -10.5189 -3.5611
0.8273 -3.9240 -0.4308
12.6410 -18.3268 13.1366
3.0255 -2.9985 -0.6355
7.8814 -5.0716 -1.5979
6.4164 -7.8632 0.7096
3.0900 -7.7467 10.7045
3.3930 -5.8986 3.8679
5.4815 -20.9582 -8.5521
12.2793 -15.6375 -0.9008
1.2693 -4.9301 -0.7305
6.2809 -7.7309 0.0331
8.2321 -9.9027 0.0224
0.6774 -4.4626 5.1805
-4.9211 -4.3783 -4.5517
21.7486 -33.4843 -11.4183
9.6923 -9.7927 -4.0307
6.6373 -7.6912 -2.3140
8.6676 -8.2669 0.7805
11.5833 -17.9306 10.2472
1.6799 -5.4910 6.6311
10.0417 -18.6254 22.6254
12.6565 -27.9233 11.6509
7.1188 -24.2979 -4.5938
11.6341 -18.9689 11.3134
9.0702 -10.4501 -0.5989
6.5650 -12.3725 -0.8184
-6.3823 -5.8406 -3.7902
4.5513 -6.0320 2.3010
13.7774 -16.8273 8.1027
9.7128 -40.3801 12.6453
-0.0238 -4.5592 4.6387
1.9841 -5.9947 8.4705
5.1613 -9.6080 17.3005
8.1019 -22.2437 21.2177
-2.6081 -3.8804 -2.6532
21.8968 -43.1077 -4.8054
15.3311 -10.4696 -6.3577
-3.6830 -3.9685 -3.6399
3.6898 -6.3681 -1.9214
-6.2650 -4.2077 -3.0897
12.7301 -16.3989 -0.9985
-0.7484 -5.3398 -0.2478
0.3336 -5.7383 5.0602
17.7983 -12.0143 17.9303
-1.5567 -4.6811 7.0106
2.5364 -6.7172 10.4953
3.4274 -7.0492 -1.1506
3.3368 -6.7458 -1.4062
14.0317 -14.0910 0.5503
1.5904 -5.9464 -1.5528
12.7606 -12.2505 1.6783
7.2687 -6.0625 1.7714
6.7418 -8.4540 -0.6178
-0.4294 -5.1990 -1.1409
8.7392 -12.0612 10.5650
9.9114 -17.1541 18.5743
12.5917 -20.6359 11.9044
7.7819 -9.3042 -0.2840
9.2647 -10.0962 0.2352
10.8400 -15.3084 16.8795
14.8356 -8.9927 -5.3408
5.8189 -8.8987 11.8940
6.0330 -8.1755 3.7585
9.9238 -11.3228 5.0784
12.7495 -47.3087 20.2915
-4.7970 -4.1436 -2.4208
1.8277 -4.9634 5.3100
2.1477 -7.4089 0.4362
14.4467 -21.1676 13.7221
16.9674 -30.3435 16.0143
12.0581 -46.8879 23.4053
10.4599 -48.8885 22.4243
9.9268 -45.5375 21.0056
13.6082 -22.4241 16.9373
18.2021 -16.1337 0.7342
-9.5439 -4.4178 -4.1477
15.1159 -29.1518 32.0860
7.9858 -8.6102 3.9852
14.8339 -17.7947 15.3884
11.6056 -11.9649 2.2130
15.8345 -21.5396 17.2191
3.5794 -7.7733 9.9442
1.2154 -4.5912 4.6753
6.2377 -8.7495 1.2451
-8.2022 -4.2266 -3.8099
18.8730 -18.7567 1.8070
-7.0175 -9.5687 -5.1220
-1.9115 -8.3458 5.2749
8.3247 -13.8187 6.8146
1.3565 -27.7247 8.1438
5.2024 -31.7783 10.8075
2.3888 -27.7841 8.5151
13.9955 -11.4750 -3.7824
-3.6315 -3.6749 -4.1920
-9.6097 -5.0029 -4.7074
1.8324 -6.8061 1.2437
6.6677 -9.8099 14.4430
1.9427 -5.2003 6.1157
9.9596 -10.8094 0.0137
-1.7828 -5.2745 -3.4021
6.4497 -24.0574 -4.4061
3.7451 -6.9963 -0.2236
6.2898 -8.2506 0.6416
-8.0897 -18.8888 0.5792
11.7712 -9.6801 -0.4266
4.6096 -7.4188 -0.7953
4.8670 -8.0039 -0.6551
-3.5837 -6.2301 -2.9181
4.8604 -9.3821 4.2768
12.7829 -17.6804 7.2113
0.5354 -6.5952 9.2748
5.1620 -9.8754 12.6802
0.1633 -0.6224 0.1137
13.3162 -13.2788 19.2578
11.4465 -16.7615 17.1772
4.5958 -8.2382 13.6610
2.9721 -8.8245 12.4759
6.0785 -11.5190 14.2673
8.5078 -13.8473 15.8530
16.3449 -24.5553 20.8720
7.5494 -11.6640 20.8458
11.9450 -25.1035 26.7911
17.8048 -10.2161 -2.5010
24.3133 -17.6491 1.8144
19.2324 -14.8514 4.1495
4.9573 -8.5626 1.2719
-5.5527 -5.9023 -4.0662
15.8020 -10.8181 3.2022
-15.6221 -9.2734 -4.2591
-7.5279 -5.5895 -9.0771
-5.5733 -5.9125 5.5796
26.6097 -42.1926 26.3000
6.0965 -4.6950 39.0364
-19.5699 0.7019 6.6928
-15.7808 3.1512 13.9551
5.4454 -9.6967 13.7533
-8.2167 -6.2231 11.6697
6.2366 -21.0966 13.0906
0.1186 -16.1743 10.4605
0.1579 -0.6431 0.1247
-15.1878 -6.7553 -0.4863
10.6886 -15.3452 16.3128
-7.0187 -8.6854 5.6108
-1.3004 -16.2096 9.0828
8.1470 -31.7602 13.3222
-5.2316 -10.6302 6.1968
-1.2978 -10.2791 3.4049
3.1037 -46.2803 38.2303
-28.1203 -8.0316 12.1586
-27.1935 -1.8295 16.5552
-12.7373 -13.0378 5.7468
-9.1075 -7.6126 3.1686
1.4886 -15.2614 10.9896
-0.2355 -13.3267 31.7763
5.4157 -28.3899 41.1099
8.7465 -21.8314 10.8314
0.3890 -0.6490 0.4753
0.2531 -0.6591 0.1532
0.0392 -0.5966 0.0692
0.1674 -0.6500 0.1137
0.3289 -0.6406 0.2904
0.3459 -0.6014 1.0022
0.0635 -0.6096 0.0789
0.1860 -0.3887 0.1850
0.0478 -0.2549 0.1128
0.1459 -0.7999 1.5339
0.2144 -0.4683 0.2109
0.0634 -0.6120 0.0883
0.0233 -0.5820 0.0617
0.2506 -0.5136 0.2946
0.1367 -0.3196 0.2274
0.2410 -0.5949 0.3831
0.1098 -0.7768 1.1490
0.0693 -0.0483 0.1187
-0.0929 -0.6056 0.2858
0.1257 -0.7517 1.1607
0.2485 -0.6040 0.4209
0.4337 -0.6248 0.4823
0.1889 -0.4612 0.3321
0.0938 -0.6790 0.3398
0.2597 -0.6072 0.3990
0.1087 -0.6015 0.2764
0.2913 -0.6407 0.2047
-0.0164 -0.7800 1.2795
0.1110 -0.9099 1.3650
0.0867 -0.6439 0.3549
-0.1300 -0.2758 0.4544
-0.2196 -0.6432 0.8738
0.0945 -0.6436 0.3757
-0.0194 -0.2207 0.3890
-0.1360 -0.1705 0.2997
-0.1269 -0.1797 0.1156
0.1185 -0.7541 0.3608
0.0533 -0.6156 0.3433
0.0745 -0.7877 1.1516
-0.0770 -0.0605 0.2195
0.2506 -0.8565 1.7149
-0.1700 -0.6203 0.8385
-0.2164 -0.6590 0.8791
-0.2013 -0.7138 0.9589
-0.0962 -0.0449 0.1266
-0.1090 0.0142 0.1292
-0.0354 -1.1560 1.7521
-0.0510 -0.2044 0.3989
0.0802 -0.6124 0.3359
0.2624 -0.6270 0.3944
0.0854 -0.6163 0.3065
0.0771 -0.6101 0.3554
0.1939 -0.6356 0.0886
0.2238 -0.6532 -0.0191
0.2579 -0.6474 0.1393
0.2486 -0.4843 0.2071
0.0477 -0.6409 0.0597
0.3802 -0.6998 0.3463
0.3063 -0.6031 0.3486
0.4196 -0.6572 -0.1156
0.4335 -0.6287 -0.0895
0.6756 -0.6880 0.0073
0.4543 -0.6175 -0.0696
0.5667 -0.6646 -0.0247
0.5350 -0.6587 -0.0350
0.3480 -0.6428 -0.1146
0.2579 -0.6410 -0.1474
0.1933 -0.6483 -0.1636
0.2569 -0.6636 -0.1372
0.2858 -0.6356 0.0182
0.4830 -0.6225 0.2132
0.4938 -0.7247 0.2274
0.4567 -0.6334 0.2057
0.2837 -0.6410 0.1467
0.2998 -0.6480 0.1655
0.1660 -0.6606 0.1183
-0.0169 -0.6442 0.0459
-0.0271 -0.6557 0.0570
0.1324 -0.6616 0.2404
0.3760 -0.6549 -0.1368
0.2577 -0.6487 -0.1547
0.3511 -0.6399 -0.0961
0.3177 -0.6523 -0.1050
0.2811 -0.6511 -0.1173
0.2364 -0.6249 -0.1298
0.1715 -0.6414 0.0997
-0.1238 -0.0141 0.1394
0.4165 -0.6630 -0.1395
0.4139 -0.5521 -0.0924
0.5502 -0.6445 -0.0627
0.5497 -0.6284 -0.0415
0.3100 -0.6271 -0.1218
0.2366 -0.6361 -0.1502
0.3354 -0.6578 -0.1086
0.0656 -0.6394 -0.2136
0.1445 -0.6552 -0.1675
0.2104 -0.5468 -0.0524
0.3889 -0.6299 0.0179
0.2352 -0.6559 -0.0521
0.5736 -0.6809 0.2766
0.2394 -0.6592 0.1467
0.3457 -0.6560 0.2893
0.2974 -0.5759 0.2950
0.0680 -0.6550 -0.2128
0.2615 -0.4300 0.0720
0.4640 -0.6729 -0.0746
0.3891 -0.6678 -0.2188
0.6247 -0.6432 0.0062
0.3987 -0.6125 -0.0446
0.4726 -0.6711 0.0385
0.4257 -0.6856 0.0112
0.2903 -0.6194 0.1878
2.1049 -1.1157 0.4085
0.2305 -0.5115 -0.2100
0.0983 -0.6630 0.0310
0.3534 -0.6435 0.2338
0.1927 -0.6486 0.0684
0.2112 -0.6786 0.0358
0.2928 -0.6521 0.0199
0.2714 -0.6257 0.1465
0.0994 -0.6460 0.0851
0.0849 -0.6668 0.0784
0.3139 -0.6349 -0.1205
0.5741 -0.6411 -0.0197
0.1180 -0.6573 0.2829
0.0969 -0.0009 -0.0873
0.3843 -0.1771 -0.0208
0.1872 -0.0674 -0.0107
0.2030 -0.0710 -0.0464
0.1020 -0.0881 -0.0790
0.0435 -0.0207 -0.0934

