-0.3054 -0.5850 0.7172
-0.4701 -0.6262 0.7439
-0.5381 -1.2565 0.4011
-0.6355 -0.7120 0.6059
-0.2458 -0.8038 0.6243
-0.2875 -0.2734 0.5184
-0.3464 -1.0110 0.7178
-0.2223 -0.6361 0.5223
-0.2986 -0.7689 0.5610
-0.3554 -0.7655 0.5160
-0.3007 -0.2407 0.3877
-0.3481 -0.3239 0.3939
-0.7668 -0.6257 0.6335
-0.5260 -0.7405 0.3160
-1.6335 -2.6276 3.4182
-0.5366 -0.7182 0.7176
-0.1297 -0.8072 0.6706
-0.1637 -0.8173 0.5919
-0.5681 -0.8779 0.4757
-0.5913 -0.9059 0.4143
-0.1453 -0.7479 0.6214
-0.0003 -0.8306 0.6739
-0.0742 -0.8203 0.8269
-1.3824 -3.0883 3.5182
-0.3219 -0.9410 0.7503
-0.2104 -0.8013 0.5127
-1.7540 -1.8832 1.9641
-0.4265 -1.0070 0.6549
-1.1526 -1.0848 1.2057
-0.4016 -0.9605 0.3863
-1.0646 -2.0744 0.9098
0.1264 -1.2096 0.8898
-0.6491 -0.5542 1.0859
-1.9031 -1.9802 1.8044
-20.6489 -11.2134 11.2337
-2.7293 -3.1784 2.7044
-1.7893 -1.9446 1.8361
-2.5792 -2.4360 1.9284
-0.2930 -0.3824 0.8614
-0.2169 -0.6371 0.4276
-0.2069 -0.5398 0.8302
-1.1751 -2.6881 3.8779
-1.1365 -2.3374 3.3717
-1.5671 -2.9604 3.7004
-4.2091 -9.1808 7.2140
-1.7117 -4.2056 3.1365
-1.0896 -2.2972 2.0121
-2.0544 -4.9524 3.1245
-0.8797 -1.7768 1.6391
-27.5316 -27.1949 14.3845
-1.5941 -1.8916 2.1104
-1.5508 -2.3541 1.9076
-2.6252 -3.4386 2.5565
-6.3225 -9.1368 3.9011
-0.4728 -0.7257 0.6903
-1.6735 -1.7609 1.5436
-1.4492 -2.0539 1.2157
-1.9786 -1.7634 1.5604
-0.3729 -0.5810 0.4479
-0.9905 -4.1662 3.0152
-1.9138 -2.8028 3.4660
-1.4052 -1.8701 2.2388
-2.0683 -3.0932 2.7672
-5.7402 -5.8631 2.5471
-2.2352 -2.3342 1.5283
-0.7031 -2.7855 0.9797
-4.1312 -8.0560 0.7912
-0.1622 -0.3911 0.5744
-0.8476 -3.6220 3.5372
-0.9582 -2.8739 3.5010
-19.9196 -20.0502 10.4366
-1.1729 -2.4854 1.5119
-1.8479 -2.3691 1.4933
-0.4368 -2.4750 1.0574
-1.0284 -3.2648 1.0292
-1.4691 -2.5922 0.7904
-0.6714 -4.1912 3.6616
-0.6610 -2.1536 2.3392
-3.6336 -5.5809 4.1602
-1.0224 -2.5257 1.5178
-1.4066 -2.5612 1.3821
-2.4881 -2.2388 2.2566
-1.6182 -2.2725 1.2202
-0.3347 -2.2602 1.5998
-0.4163 -2.4271 1.2203
-1.3929 -2.8951 1.2521
-1.2325 -2.1933 2.1461
-0.3206 -0.5782 0.6032
-0.3290 -0.5206 0.5752
-0.6266 -1.1323 0.7319
-1.3916 -1.8885 1.9373
-1.1640 -2.8349 1.0807
-0.9765 -2.5967 0.4696
-1.4767 -2.8100 0.9310
-1.3122 -2.9737 0.7053
-1.2492 -2.8842 0.8977
-1.6473 -3.0616 3.4542
-2.1132 -3.1484 3.1051
-1.3840 -3.1445 2.9054
-0.3789 -2.8418 1.0164
-1.0878 -3.5176 0.7746
-1.9111 -2.9965 1.3384
-1.3377 -3.0201 3.1805
-0.6973 -2.9213 1.8528
-26.9732 -13.5299 16.2451
-1.9774 -3.5638 2.1366
-2.5028 -3.2776 2.7438
-26.0965 -19.0631 7.8402
-3.3396 -4.5653 2.1766
-2.3775 -3.4812 1.5083
-2.5991 -2.1481 1.9054
-2.6794 -2.4289 1.9577
-0.4715 -2.8931 1.5732
-1.8358 -3.3163 0.5538
-0.6576 -1.9547 1.7767
-0.7076 -2.1461 1.5108
-0.7462 -2.2716 1.3892
-0.2668 -0.5371 0.5196
-0.0273 -1.9213 1.2494
-1.0706 -4.5934 1.6822
-1.1627 -3.1619 0.4802
-1.9593 -2.2428 1.6403
-0.1093 -0.5276 0.5859
-1.6430 -2.7494 3.7400
-1.2979 -2.6584 4.0294
-1.5544 -3.2891 3.2274
-28.4823 -23.9036 15.3666
-5.4526 -5.9705 5.1078
-3.0812 -3.0931 2.3278
-2.4928 -3.9872 1.6549
-0.3738 -4.1151 1.6878
-0.3525 -1.6697 1.0966
-0.1144 -2.1678 0.9849
-0.6178 -2.5285 1.9576
-0.3307 -0.9789 0.8441
0.0284 -1.3401 1.0471
-1.0351 -3.8107 4.6767
-7.0986 -6.4302 2.1008
-2.7213 -4.5707 1.0753
-1.2201 -3.3106 4.4615
-1.2474 -3.9952 3.0909
-1.7623 -4.3183 3.5302
-1.0821 -4.4085 2.4864
-2.9136 -5.3483 4.4403
-1.3621 -5.5869 2.2443
-3.0194 -5.9194 2.7143
-3.6203 -3.6260 2.9680
-1.9971 -16.7282 7.3858
-0.4232 -5.8175 3.2394
-1.8734 -4.6195 1.5497
-9.3849 -13.5557 1.9019
-3.1685 -6.4343 0.2652
-0.4973 -1.4492 1.1486
-6.5885 -7.0368 7.6865
-3.0110 -4.2981 1.5577
-8.1048 -6.3903 2.7887
-0.5122 -3.1627 2.4392
-24.0997 -27.3261 8.2900
-8.9166 -12.2792 4.0941
-1.0484 -3.2262 0.3375
-0.2928 -3.5769 3.0752
-2.0946 -14.0854 3.7303
-0.9578 -5.5887 2.6590
-29.8274 -23.7631 18.4151
-1.7249 -10.6300 1.8758
-2.0411 -6.1358 1.7291
-6.0872 -9.0750 3.1128
-0.5605 -1.6211 0.5218
-2.6523 -3.9277 1.0189
-0.0358 -6.8994 3.7049
-2.4945 -7.2574 1.4153
0.4333 -3.1426 0.9170
-0.8664 -2.6044 0.5676
-2.6031 -5.7425 0.6302
-4.7675 -8.1252 10.7591
-1.7060 -4.3534 5.0558
-11.1979 -10.8717 16.4087
-1.6522 -4.2179 4.5100
-5.2066 -6.8329 8.5961
-3.2018 -3.5707 4.2036
-3.3581 -4.7295 3.1804
-19.2394 -11.0530 9.2214
-3.7986 -3.6272 2.8549
-3.5253 -3.7727 2.5768
-8.6865 -7.0792 3.7313
-13.3967 -24.4119 -2.4366
-3.9532 -4.8116 1.8333
-4.0828 -3.9892 2.0583
-5.4948 -5.8723 1.5488
0.0811 -4.9605 3.1665
-0.9822 -8.5815 3.8085
-1.3874 -7.2369 2.4831
-1.7181 -6.6097 1.3294
-3.8398 -6.5544 0.2373
0.1082 -1.0652 0.8080
0.2492 -6.3362 3.9000
0.2412 -5.8953 2.9569
1.1614 -6.0253 1.8590
-0.7020 -6.0500 3.1147
-0.4135 -6.1535 2.3747
-2.1944 -5.5879 4.2059
-2.6938 -5.7250 2.8615
-1.9994 -8.3669 1.8220
-1.3597 -8.6622 0.2294
-2.6119 -6.5900 1.3779
-3.6311 -9.3646 0.4675
-4.0572 -5.0699 1.9862
-1.3982 -6.7666 -0.7669
-9.5038 -15.7067 -1.2425
-4.4949 -7.0057 0.4680
-2.2974 -7.4713 -1.2123
-2.2150 -6.1892 3.0388
-2.1832 -7.6491 3.8555
0.4479 -5.8400 2.6794
-11.5701 -26.7672 8.9865
-2.9340 -6.7875 2.4243
-0.0369 -6.4509 3.1880
-3.5267 -5.9522 1.2793
-2.9319 -8.1406 2.1194
-2.6064 -14.2448 7.2745
-11.1714 -21.6920 11.1982
-2.8548 -6.7018 0.5420
0.0220 -6.4878 4.2959
-2.1328 -6.6671 0.2839
-5.2633 -10.6722 2.6156
-3.1605 -13.7843 5.6457
-1.6371 -6.2602 2.2361
-1.4140 -7.4177 1.4061
-0.1928 -6.1255 2.1215
-4.1340 -13.5257 10.3572
-17.1835 -14.5677 21.0415
-2.4576 -8.2452 7.0315
-0.8810 -5.1503 3.7917
-1.7379 -4.8982 4.6690
-2.8128 -4.7279 5.2641
-3.1430 -4.2841 5.9179
-2.6860 -6.1521 2.7731
-19.6557 -13.1165 8.8140
-8.6430 -10.5102 3.0666
-3.7851 -3.3200 2.6945
-10.4650 -9.1180 3.5860
-6.5095 -5.2642 2.8928
-6.3489 -6.4737 2.1306
-4.8052 -3.3097 2.0705
-1.7023 -8.5738 4.6209
-8.9361 -15.8640 -0.4718
-6.7962 -10.4259 0.7087
-0.4858 -1.4478 1.6747
-1.2968 -2.9358 1.3639
-1.4959 -7.8825 6.9351
0.1821 -9.7030 3.8449
-0.3614 -7.1742 3.8445
-3.7507 -5.1609 7.1852
-14.9461 -25.4084 0.4882
-3.0954 -7.4380 0.8193
-0.6004 -6.9958 4.7216
-1.1111 -6.7141 3.7217
-1.7416 -8.4032 2.3239
-0.7432 -6.5401 4.8585
-2.9033 -8.3324 3.9057
-4.9117 -17.4342 9.1252
-0.3423 -6.7827 3.9026
-8.4506 -14.9772 10.6461
-3.1738 -5.7996 5.2913
-4.0645 -4.6785 5.9091
-30.4399 -27.3455 20.9159
-2.3865 -6.5061 3.1608
-7.1166 -9.3183 5.7098
-25.2504 -20.1431 10.3984
-3.0713 -7.1802 1.4556
-4.3082 -5.5903 2.3752
-19.0376 -8.1890 5.3695
-5.4894 -17.4976 5.8652
-2.5006 -7.1203 2.4777
0.9436 -3.4268 1.1716
-3.2155 -4.8943 7.6435
-4.9111 -8.3801 1.8418
-4.8809 -6.9027 2.0566
-4.2814 -8.3885 2.5892
-2.9951 -5.6791 6.1525
-14.7128 -13.2227 13.5702
-28.8254 -16.2155 18.9424
-4.3762 -4.3373 5.6800
-4.5455 -5.8713 4.9399
-4.4895 -4.0997 4.4844
-5.9079 -7.3719 4.6640
-5.1856 -4.3991 3.8519
-4.9426 -4.9974 3.2021
-7.8265 -6.5325 2.8045
-1.9274 -9.7628 8.1239
-5.8579 -14.9211 3.4656
0.6521 -10.2503 4.0560
1.2167 -10.5175 2.5000
-3.0340 -8.5569 4.9691
-4.6453 -14.2825 1.8407
-2.1332 -9.6204 0.6784
-3.3675 -12.1486 0.6933
-3.6706 -9.0729 1.2251
-1.7386 -14.0595 6.3515
-4.0216 -10.1988 3.4508
0.2740 -10.2210 4.4647
-0.9540 -8.6893 4.6344
-1.2413 -9.2109 2.2888
-0.2650 -8.9437 3.2187
-2.8206 -10.2926 6.8000
-2.6177 -11.3041 9.5404
-2.8841 -7.2381 9.0258
-12.3117 -13.5368 18.1944
-2.8869 -8.2751 7.8808
-24.6369 -21.4889 27.8854
-7.1391 -8.0812 9.7054
-2.4219 -8.1407 4.7700
-5.7330 -5.7874 6.3638
-6.4554 -8.1482 6.9076
-9.1775 -14.2225 8.5896
-6.0033 -7.1946 5.2428
-26.3004 -27.0585 11.2633
-2.6440 -9.2272 1.6166
-27.6051 -12.2255 10.9598
-5.6301 -4.9769 3.6798
-5.2956 -6.7415 2.8593
-3.2866 -5.7679 8.1521
-1.4560 -11.5854 7.2067
-4.6160 -6.3900 8.6642
-3.6354 -8.6240 0.8478
-6.8702 -7.7271 1.7361
1.2090 -7.6139 2.5528
-0.4497 -1.5573 1.4489
-5.2078 -9.2487 8.8340
-1.9729 -10.0452 4.4640
-3.5652 -10.1252 2.8996
-3.1139 -12.6710 -1.9248
-4.6924 -9.5321 3.4446
0.9631 -4.4884 2.6376
-7.0154 -10.8380 -0.2181
-2.3789 -10.0990 4.0907
-2.1163 -9.8138 5.2917
-6.5233 -10.3343 12.9466
-2.1866 -8.9783 6.6945
-2.4106 -7.4582 5.7295
-29.3748 -26.7094 24.0765
-19.1376 -13.9985 17.4516
-26.9438 -30.3574 19.3736
-11.6345 -17.9237 7.5100
-2.7999 -9.2253 3.2783
-5.6198 -6.2377 4.6527
-10.6209 -13.2449 5.5939
-6.3114 -6.2284 4.0405
-6.5263 -10.7761 2.6971
-22.8346 -27.9164 3.5270
-6.7831 -8.3110 2.6700
-3.7039 -13.4759 -2.3122
-0.5675 -10.5201 5.4926
-1.6611 -10.9629 5.8204
-5.2202 -7.9099 7.3455
-10.0878 -15.1758 -0.6863
-13.0795 -18.6492 -2.8131
1.8088 -11.1377 3.2752
-5.6949 -13.1687 2.1240
-3.4303 -11.0594 0.7626
-2.0920 -11.5093 6.7432
-2.0671 -12.8855 4.6941
-4.9448 -10.6051 3.9513
-7.7886 -18.0128 3.6685
-7.1823 -12.4398 -0.2460
-0.7443 -12.2585 7.4472
-6.6174 -9.6610 1.9164
-6.8539 -10.4234 0.6975
-6.5874 -9.0442 2.8712
-6.0901 -12.7482 0.9713
-0.0603 -11.7703 4.2962
-8.2384 -11.8378 11.2187
-31.5141 -16.9662 28.8049
-6.0649 -8.7275 7.2857
-8.9014 -8.2858 7.3540
-7.0415 -8.5605 6.3375
-8.7856 -15.3204 4.8688
-4.1269 -12.1594 2.8697
-3.1297 -11.9485 1.4179
-7.0477 -5.1365 3.9509
-7.2884 -9.1333 1.2666
-9.0405 -8.2999 1.6418
0.0864 -11.0368 5.7326
-5.9297 -16.0683 5.3490
-0.2841 -1.8814 2.0301
-0.1578 -2.2151 2.7121
-0.7815 -12.9671 6.3197
-1.8020 -12.5628 7.2913
-4.6356 -12.2077 7.7195
-5.6610 -11.7431 3.3433
-4.9419 -12.9154 1.6154
-8.4602 -8.5574 1.3713
-5.6411 -13.7254 4.5066
-0.9544 -12.8765 6.8712
-7.0269 -14.4475 -0.1696
-1.0636 -13.9992 4.9453
-6.0436 -10.6736 10.7125
-7.4881 -9.0482 10.7541
-5.9646 -12.8780 6.6124
-6.4071 -6.1434 7.5292
-8.1729 -9.7821 5.1454
-7.8013 -8.7403 3.5519
-7.7035 -5.4605 2.3402
-12.7615 -17.2243 0.5329
1.1630 -5.7031 1.3731
-3.0424 -20.3701 10.4833
-4.3103 -12.6554 10.3923
1.1057 -20.8227 4.7511
-3.6955 -14.9908 6.6865
-4.1234 -15.0153 3.1637
-11.0873 -18.2024 1.8531
-6.5607 -14.6021 0.5720
-10.4395 -20.9636 1.5568
-7.0649 -11.6040 3.4277
-9.7049 -17.8290 1.2303
-1.7753 -14.8064 7.2577
-4.6841 -12.0094 10.5655
-3.3109 -16.3834 5.5066
-5.1303 -9.3737 12.4059
-4.6418 -10.3759 10.2235
-8.4787 -16.5379 6.8949
-22.0059 -12.5749 4.1579
-8.7377 -7.9108 2.3752
-21.3303 -12.1722 2.6224
-10.2006 -6.8594 1.9074
-1.8162 -13.9726 7.5152
-6.8435 -16.3131 9.1851
-8.1197 -6.8879 5.6033
-9.3518 -12.9345 -0.6067
-11.4919 -26.6796 12.6782
-7.6647 -16.3863 -0.2095
-2.5270 -15.4996 9.3398
-5.6100 -13.3141 5.5268
-9.1680 -12.9678 3.0010
-6.5527 -6.4676 7.7192
-25.6533 -13.6763 13.7863
-27.4937 -18.0186 12.0736
-18.7062 -9.0995 4.6066
-29.8712 -19.9425 2.1152
-1.2217 -15.0514 8.1185
-4.8570 -13.1010 7.8971
-9.0494 -16.0567 3.8251
-10.9990 -21.2306 3.2725
-7.9518 -13.9186 2.1409
-10.4208 -16.8663 0.9247
-7.9867 -6.6689 5.7594
-7.7971 -19.0566 0.9298
-9.1936 -14.4565 1.4188
-5.0261 -17.4263 -2.6154
-4.6394 -13.5035 11.8276
-11.6818 -16.4468 -1.9093
-9.8245 -14.8638 -0.6531
-7.1043 -18.5264 3.1080
-12.1992 -13.1965 2.4732
-7.8809 -8.5554 13.7899
-8.4728 -8.2120 12.4782
-1.9489 -16.9316 6.4681
-20.2783 -24.9238 21.1993
-20.2316 -30.1988 21.9839
-31.1354 -30.4863 27.0940
-19.9901 -14.3962 11.4457
-12.8254 -26.8342 2.3814
-26.4301 -21.6713 8.7660
-11.6157 -12.7439 2.4775
-9.9888 -9.0924 2.5935
-8.6843 -4.8405 3.1185
-25.2836 -19.9754 0.4466
-10.2291 -19.4138 -3.0288
-22.7826 -17.3207 0.0952
-10.9415 -18.6062 -3.6754
-13.9251 -16.2450 0.1937
-7.6770 -27.1415 11.6644
-6.1252 -16.4192 10.0742
-8.2489 -7.1418 7.9734
-11.6350 -28.3027 0.1889
-13.0776 -14.7702 -0.5824
-24.1869 -25.6257 2.5045
-8.2599 -15.6399 8.0448
-9.3299 -15.3461 6.4333
-5.8249 -18.6164 4.7296
-14.8049 -14.2198 21.8358
-10.1394 -9.2292 12.9425
-14.7515 -26.8461 11.2183
-9.2991 -27.2107 7.4217
-31.2810 -16.4272 22.5449
-11.2847 -7.8221 4.8426
-23.2004 -17.4255 6.4755
-13.8904 -15.9977 1.6309
-13.8905 -10.1817 2.6897
-13.7218 -5.1780 2.1755
-4.3070 -17.9871 10.0809
-8.9943 -21.8043 12.5691
-3.6319 -3.5241 1.7134
-4.3080 -10.0619 2.0831
-10.0144 -18.2618 12.4356
-6.6901 -21.7991 6.5138
-19.8486 -27.7851 10.2064
-8.8973 -22.3401 4.6591
-13.6523 -19.2399 0.9722
-11.4680 -20.4226 6.6729
-15.1538 -38.0811 14.7133
-16.3031 -19.3360 5.3148
-2.3172 -20.0778 11.7825
-12.4836 -17.1092 18.3140
-8.7517 -22.5055 10.4865
-31.1857 -17.0012 30.7654
-19.3886 -20.1725 22.5394
-31.1892 -24.1904 22.8976
-23.0488 -12.4508 16.9534
-22.7539 -17.8046 14.2358
-23.1881 -17.0090 3.3489
-10.8958 -20.9081 0.8742
-17.7500 -26.7961 -2.5773
-17.6042 -33.6603 14.3513
-14.5597 -20.0266 3.0850
-12.2122 -20.9617 -0.5735
-0.8812 -3.7853 2.6698
-13.6647 -27.3641 14.3777
-19.0518 -31.1200 18.0571
-21.9116 -29.4829 15.4315
-21.6998 -14.9472 12.5279
-22.1842 -18.8128 4.6121
-0.9905 -3.7794 2.9017
-24.6123 -32.8936 -7.5420
-21.6285 -25.2680 -2.3413
-3.8489 -5.6398 2.5205
-32.1816 -20.6853 29.3799
-28.0211 -29.7033 22.4058
-27.8253 -16.4807 16.1817
-18.2217 -7.4388 5.1584
-16.3999 -34.9792 13.4307
-9.2588 -32.3705 8.4294
-20.5031 -30.6632 3.0468
-17.4096 -23.2183 -1.6303
-11.8440 -27.8994 9.9767
-16.7476 -25.5471 -1.7908
-16.2872 -34.4453 6.2115
-22.2462 -22.1030 -0.7073
-0.3124 -7.9455 4.1009
-24.5017 -22.2128 0.3105
-15.5473 -5.9261 1.9903
-23.2909 -32.1302 18.4386
-13.8198 -5.1813 2.9390
-17.5370 -22.5634 -5.0258
-21.9788 -31.6126 23.5909
-22.8449 -32.6910 10.6216
-27.3486 -22.9612 3.5997
-22.1249 -13.1852 2.7375
-14.5396 -6.3502 0.7951
-20.1078 -35.3842 1.5419
-13.5382 -30.6717 8.4669
-15.0578 -28.7524 7.7984
-14.6578 -6.7212 5.5648
-19.7839 -15.4501 3.7615
-11.7294 -14.3485 2.5301
-18.0608 -23.7275 4.7823
-23.7360 -18.5132 11.9152
-22.2537 -16.3977 8.5714
-20.8192 -13.3214 1.1189
-13.5773 -5.9949 1.8096
-22.4870 -15.2934 -2.4361
-11.5701 -34.0088 8.3754
-17.8456 -26.7040 3.2404
-17.0003 -29.9661 1.6539
-16.7872 -10.0820 0.4788
-16.4460 -7.8253 9.5476
-17.5730 -23.0970 7.7687
-22.2494 -29.4876 6.7692
-20.5362 -32.5221 5.1430
-17.4978 -20.9649 7.4653
-23.4732 -27.9885 3.7349
-17.4198 -14.2411 4.1027
-18.8879 -17.3890 3.3963
-17.1737 -10.4392 0.6106
-14.9372 -7.3687 1.1407
-15.5525 -29.1451 7.2234
-24.9099 -30.8387 -10.4856
-18.2482 -21.6476 2.8362
-9.8700 -4.9633 3.6143
-3.3055 -1.8554 1.0728
-17.7183 -11.6685 -2.3777
-19.9361 -27.5459 -8.9745
-13.4147 -8.0993 9.6357
-15.6187 -12.6091 10.2861
-13.9309 -8.7282 8.7977
-19.2692 -20.1173 8.7969
-19.1547 -35.2156 3.4703
-8.8457 -6.3905 5.0748
-17.4868 -16.9622 5.2980
-17.4922 -19.5046 4.2723
-13.1488 -11.0049 4.2141
-14.6378 -8.6907 4.4228
-18.2132 -14.2945 -0.0845
-19.4683 -15.5271 -1.8195
-24.0735 -22.5231 -5.6210
-18.3047 -14.7495 -3.0894
-19.3128 -15.6826 -5.2586
-22.2417 -20.0229 -7.8101
-25.6548 -28.8254 -13.4219
-4.2741 -12.1735 6.0190
-22.0900 -14.9334 27.4486
-23.4533 -27.5949 1.6417
-24.4033 -20.7738 -7.9450
-27.6455 -26.6757 -11.5987
-8.9596 -7.7725 3.6413
-1.5884 -4.6086 1.7238
-11.0271 -17.1694 0.9213
-12.5720 -24.1604 -3.1915
-16.7077 -12.2414 -0.3593
-16.1744 -16.7863 -2.3250
-12.2212 -5.3784 1.0820
-13.1739 -8.5858 -0.8095
-0.4419 -9.0327 1.9561
-1.6762 -7.0056 2.2840
-7.0478 -17.9820 1.5540
1.1196 -5.8836 3.4966
-1.6285 -5.1783 3.2505
-10.3690 -5.4233 1.3750
0.0503 -7.7416 2.1943
-4.9591 -4.8167 1.3537
-12.1489 -7.2535 0.2062
-21.1719 -24.4576 -3.9377
-14.4586 -11.2579 -2.6586
-21.1252 -25.3666 -6.3487
-19.9450 -30.6416 -1.2091
-23.4369 -28.9021 13.9770
-9.8289 -5.8752 1.0564
-21.7978 -7.6057 -17.7924
-20.1583 -21.5976 -3.7085
-18.6430 -21.4018 -5.7430
-21.8573 -27.2142 -11.2612
-8.1165 -1.3840 -8.8839
-25.3102 -10.7033 -23.8448
-8.7531 -1.0211 -10.3539
-8.8891 -8.7084 -14.1649
-5.8524 -8.1960 -12.0904
-25.4619 -12.2391 -25.7943
-23.5081 -35.9873 -0.3601
-24.5129 -33.5539 -4.3143
-16.9672 -4.8103 -12.2824
-24.3893 -33.7248 0.4603
-22.9682 -35.8139 0.0684
-25.4199 -23.9824 -1.4012
-22.6206 -34.7353 -0.7786
-24.7997 -27.7280 0.6648
-23.7729 -33.2677 -3.8368
-25.3800 -21.1411 -1.9923
-22.7667 -36.1583 0.7045
-20.7485 -13.2292 0.5073
-21.9615 -16.0670 -1.0195
-13.3208 -6.9036 -17.6973
-10.9235 -3.5602 -16.2612
-20.6332 -38.0926 8.1946
-23.9180 -12.0287 -1.1454
-26.6663 -29.7221 1.7004
-6.9222 -2.6670 -8.8560
-0.2310 -0.7062 0.2479
-0.2313 -0.7550 0.1596
-0.2255 -0.7340 0.1788
-0.2018 -0.6258 0.2088
-0.2107 -0.6601 0.1123
-0.2541 -0.6398 0.1933
-0.0498 -0.0532 0.1174
-0.2194 -0.6464 0.0989
-0.2220 -0.6509 0.1795
-0.2696 -0.6951 0.1696
-0.2081 -0.6204 0.1522
-0.3332 -0.6280 0.2302
-0.2673 -0.7388 0.1430
-0.1430 -0.0686 0.0688
-0.2729 -0.7171 0.2427
-0.4712 -0.6637 0.2925
-0.2082 -0.6910 0.2017
-0.2032 -0.6401 0.1775
-0.1977 -0.1080 0.1039
-0.5205 -0.6160 0.2578
-0.4652 -0.6451 0.2074
-0.3293 -0.1769 0.1142
-0.2033 -0.6700 0.0842
-0.4031 -0.6658 0.2473
-0.3459 -0.6405 0.1597
-0.2987 -0.4612 0.2121
-0.2731 -0.7381 0.1015
-0.3985 -0.6637 0.0207
-0.3749 -0.6589 0.2048
-0.4873 -0.6481 0.2721
-0.4754 -0.6958 0.1008
-0.4121 -0.6094 0.2304
-0.3239 -0.6833 0.1285
-0.2048 -0.1562 0.1167
-0.2035 -0.1428 0.1132
-0.2447 -0.1577 0.1006
-1.0395 -0.4984 0.5547
-0.3289 -0.6854 0.2162
-0.8101 -0.6486 0.2860
-0.4259 -0.6329 0.2436
-0.5115 -0.6659 0.2580
-0.5368 -0.6829 0.1811
-0.6709 -0.6333 0.2651
-0.6402 -0.6303 0.2261
-0.5583 -0.6966 0.1484
-0.5122 -0.6648 0.1015
-0.4812 -0.6514 0.0691
-0.7532 -0.6189 0.2967
-1.0312 -0.7954 1.3921
-0.1880 -0.6263 0.1832
-1.0067 -0.4045 0.4787
-0.2055 -0.6247 0.2159
-0.8802 -0.6383 0.6923
-0.5321 -0.6365 0.2117
-0.7036 -0.6270 0.2940
-0.4174 -0.6622 0.0326
-0.7664 -0.6792 0.2442
-0.5709 -0.6326 0.1101
-0.5552 -0.6621 0.0766
-0.1422 -0.0650 0.0761
-0.4533 -0.6530 -0.0020
-0.3953 -0.6509 -0.0047
-0.3520 -0.6228 0.0017
-0.4816 -0.5689 0.2584
-0.3723 -0.6298 0.1347
-0.4668 -0.7108 0.0313
-0.8498 -0.6729 0.2936
-0.8834 -0.7320 0.1856
-1.0296 -0.6429 0.7476
-0.4081 -0.5778 -0.0957
-0.2868 -0.6419 0.0184
-0.7518 -0.6510 0.2786
-0.3471 -0.0171 0.0981
-0.3121 0.0102 0.1025
-0.3168 -0.0005 0.1632
-0.2153 -0.0220 0.0540
-0.3129 -0.0051 0.0961
-0.2019 -0.8118 0.1740
-0.7919 -0.6820 0.0742
-0.5646 -0.7136 0.2263
-0.8627 -0.7291 0.3095
-0.5140 -0.6817 0.1759
-0.8339 -0.6812 0.0452
-0.3505 -0.6881 0.1665
-0.4847 -0.7767 0.1075
-0.5759 -0.7085 0.0741
-0.7699 -0.7262 0.2557
-0.5917 -0.6940 0.1881
-0.5994 -0.6787 -0.0243
-0.3642 -0.7060 -0.0489
-0.5701 -0.6888 -0.0609
-0.7692 -0.6882 0.2848
-0.7755 -0.6828 0.2103
-0.7537 -0.6886 -0.0035
-0.5146 -0.7539 0.0698
-0.3583 -0.6837 -0.0137
-0.8215 -0.7166 0.3308
-0.4042 -0.7278 -0.0559
-0.7218 -0.6816 0.0657
-0.5006 -0.6942 -0.0692
-0.5366 -0.6845 -0.0991
-0.3992 -0.6896 -0.0793
-0.3973 -0.7062 0.0276
-0.3429 -0.7154 0.2454
-0.5314 -0.6903 0.0366
-0.7115 -0.7255 0.1006
-0.5969 -0.6709 0.0386
-0.4342 -0.6778 -0.0736
-0.3331 -0.7317 0.0190
-0.3494 -0.6769 0.0597
-0.3924 -0.7512 0.2211
-0.5955 -0.6988 0.2717
-0.6710 -0.6915 0.2373
-0.5018 -0.7317 0.1437
-0.5172 -0.6491 -0.0363
-0.7204 -0.6842 -0.0512
-0.2901 -0.7064 0.0134
-0.4064 -0.7019 -0.0133
-0.1960 -0.7695 0.2465
-0.3056 0.0162 0.0944
-1.9283 -0.9556 1.1895
-0.8543 -0.6892 0.0806
-0.2772 -0.7580 0.0109
-0.5326 -0.7072 0.2976
-0.4786 -0.6894 0.2102
-0.4530 -0.6959 0.1762
-0.8920 -0.7199 0.2706
-0.5678 -0.6821 0.0060
-0.7763 -0.6989 0.0344
-0.6507 -0.6889 -0.0547
-0.6019 -0.6736 -0.0948
-0.5062 -0.6795 -0.1346
-0.5722 -0.6824 -0.1307
-0.3201 -0.6910 0.0546
-0.4363 -0.6762 -0.1448
-0.4181 -0.0850 0.2608
-0.5123 -0.6874 0.0529
-0.6282 -0.6646 0.0436
-0.6639 -0.7011 0.0227
-0.4890 -0.7019 -0.0590
-0.5472 -0.6710 -0.0468
-0.7007 -0.6843 -0.0325
-0.5721 -0.6803 -0.0983
-0.6967 -0.6693 -0.1055
-3.0032 -1.2045 0.2950
-0.5096 -0.6822 -0.1711
-0.3942 -0.6738 -0.2039
-0.7581 -0.6773 -0.1192
-0.5079 -0.7085 -0.1940
-0.5462 -0.6815 -0.2016
-0.8019 -0.6829 -0.1529
-0.3150 -0.6818 0.0195
-0.3361 -0.7023 0.0178
-0.7100 -0.6976 0.2802
-0.6126 -0.6853 0.2257
-0.5925 -0.6829 0.1102
-0.8153 -0.6766 0.1807
-0.7831 -0.6854 0.1450
-0.3638 -0.6845 -0.0803
-0.8377 -0.6878 -0.0040
-0.7710 -0.6954 -0.0869
-0.4802 -0.6896 -0.1756
-0.8837 -0.6755 -0.0753
-0.7972 -0.6843 -0.1158
-0.6151 -0.6907 -0.1675
-0.4446 -0.7166 -0.0791
-0.2581 0.0292 0.0843
-3.3518 -1.6318 0.7131
-1.8603 -0.9995 0.4288
-0.6050 -0.6830 -0.0603
-0.8268 -0.6764 -0.0401
-0.4956 -0.6987 -0.1286
-0.7084 -0.6882 -0.0852
-0.5518 -0.6737 -0.1168
-0.8365 -0.6841 -0.1137
-0.5545 -0.6611 -0.2137
-0.3755 -0.6778 -0.2487
-0.8251 -0.6652 -0.1836
-0.6451 -0.6722 -0.2250
-0.5335 -0.6898 -0.2520
-0.8030 -0.6802 -0.2223
-0.4128 -0.6839 -0.2776
-0.8477 -0.6830 -0.2824
-2.2873 -1.4430 -0.5079
-0.4914 -0.6822 0.0003
-0.7679 -0.6911 -0.1546
-0.5175 -0.6955 -0.2032
-0.8374 -0.6805 -0.1479
-0.5728 -0.6696 -0.1971
-0.8262 -0.7103 -0.1973
-0.7700 -0.6840 -0.2251
-0.6461 -0.6699 0.0471
-0.7761 -0.6856 0.0563
-0.6368 -0.6988 -0.0804
-0.5995 -0.6910 -0.1187
-0.3814 -0.7134 -0.1908
-0.6744 -0.6744 -0.2675
-0.7975 -0.7030 -0.2994
-0.4907 -0.6764 -0.2971
-0.5376 -0.6738 -0.1673
-1.3149 -0.6300 -0.0521
-0.5870 -0.6829 -0.2614
-0.8556 -0.6746 -0.3179
-0.3787 -0.6766 -0.3505
-2.7647 -1.3666 0.1703
-2.4115 -0.9652 -0.6357
-2.5738 -1.4317 -0.7737
-2.4886 -1.2079 -0.9986
-0.7096 -0.7145 -0.5421
-0.5392 -0.6649 -0.2316
-0.3902 -0.7161 -0.2904
-0.5194 -0.6661 -0.2961
-2.7702 -1.4587 -0.6073
-0.6280 -0.6656 -0.3231
-0.8188 -0.6858 -0.3507
-0.5616 -0.6699 -0.3261
-2.3932 -0.8072 -0.5370
-0.8537 -0.6728 -0.3782
-0.6612 -0.6592 -0.3555
-0.5976 -0.6713 -0.3597
-0.8862 -0.6914 -0.5247
-0.5778 -0.6911 -0.4730
-0.7941 -0.6719 -0.5241
-3.3832 -1.3460 -0.1573
-2.3808 -1.2144 -0.9778
-2.4633 -1.2596 -1.1934
-0.8885 -0.6822 -0.4830
-0.5868 -0.6711 -0.5645
-0.6071 -0.7021 -0.2931
-0.9235 -0.6943 -0.3912
-0.7205 -0.6856 -0.3881
-0.6424 -0.6842 -0.3926
-0.6634 -0.6604 -0.4217
-0.4983 -0.6780 -0.3955
-0.7525 -0.7222 -0.4810
-0.6020 -0.5879 -0.4385
-0.3853 -0.6663 -0.4178
-0.8428 -0.6545 -0.5467
-0.6501 -0.6646 -0.5353
-0.5293 -0.6562 -0.4982
-0.5754 -0.6703 -0.5427
-0.3955 -0.6969 -0.4966
-2.1706 -0.9779 -0.9594
-0.4728 -0.6653 -0.2065
-0.3448 -0.6729 -0.2822
-0.6654 -0.6725 -0.5665
-0.6030 -0.6048 -0.5345
-0.3818 -0.6930 -0.1857
-0.3527 -0.6759 -0.2813
-0.5638 -0.6617 -0.1301
-0.7280 -0.6478 -0.3499
-0.6879 -0.6924 -0.5062
-0.7062 -0.6467 -0.5177
-0.4053 -0.6842 -0.5620
-0.8817 -0.7003 0.1943
-0.3672 -0.6576 -0.3134
-0.3295 -0.6983 -0.5731
-0.7508 -0.6367 -0.5377
-0.4144 -0.6877 -0.2474
-0.8219 -0.6706 -0.4821
-0.4386 -0.7674 -0.3975
-0.4281 -0.6561 -0.5197
-0.4619 -0.6527 -0.5452
-0.8294 -0.6604 -0.2189
-0.7709 -0.6422 -0.1869
-0.7168 -0.6628 -0.1889
-0.5769 -0.6767 -0.1968
-0.9103 -0.6799 -0.5135
-0.7306 -0.6981 -0.1184
-0.5074 -0.6736 -0.2001
-0.4438 -0.6497 -0.2727
-0.3821 -0.6933 -0.2793
-0.8373 -0.6425 -0.4349
-0.5545 -0.6642 -0.5708
-0.5394 -0.7469 -0.2634
-2.0904 -0.9331 -1.0396
-0.8683 -0.6490 -0.3705
-0.3080 -0.6777 -0.3178
-0.7587 -0.6935 -0.0036
-0.4908 -0.6771 0.0009
-0.5199 -0.6610 -0.0310
-0.7666 -0.6491 -0.0458
-0.7417 -0.6605 -0.0817
-0.5626 -0.6686 -0.0624
-0.6002 -0.6722 -0.0928
-0.5058 -0.6767 -0.1332
-0.7042 -0.6691 -0.3205
-0.9198 -0.6953 -0.3832
-0.8730 -0.6946 -0.3837
-0.4905 -0.6715 -0.3265
-0.6404 -0.6742 -0.3910
-0.7835 -0.6698 -0.4491
-0.8193 -0.7022 -0.5382
-0.8931 -0.6793 -0.2174
-0.7897 -0.6556 -0.2562
-0.7057 -0.6740 -0.3219
-2.2248 -1.2531 -0.6919
-0.3178 -0.6747 -0.3185
-0.8398 -0.6789 0.0822
-0.7296 -0.6734 0.0506
-0.6581 -0.6675 0.0409
-0.6189 -0.6847 0.0283
-0.6260 -0.6553 0.0043
-0.7754 -0.6371 -0.0653
-0.8085 -0.6760 -0.2853
-0.5499 -0.6821 -0.3079
-0.3811 -0.6853 -0.3144
-0.8196 -0.6653 0.0429
-0.7370 -0.6506 0.0310
-0.5619 -0.6689 0.0053
-0.8436 -0.6958 0.0041
-0.6668 -0.6737 -0.0108
-0.5903 -0.6645 -0.0251
-0.4403 -0.7002 -0.0699
-0.3906 -0.6586 -0.1120
-0.8331 -0.6419 -0.1840
-0.8071 -0.6797 -0.2551
-0.4826 -0.6824 -0.2367
-0.8566 -0.6796 -0.3137
-0.6391 -0.6796 -0.3250
-0.7757 -0.7005 -0.4982
-0.3282 -0.6712 -0.1179
-0.3499 -0.6795 -0.3888
-1.0021 -0.4089 -0.2850
-0.8066 -0.6939 0.1374
-0.7950 -0.6656 0.0584
-0.6992 -0.6872 -0.0283
-0.8407 -0.6391 -0.3369
-0.8048 -0.7222 -0.4522
-0.2672 -0.6856 -0.3595
-0.4111 -0.6808 0.1061
-0.7711 -0.6755 0.1424
-0.5922 -0.6884 0.1146
-0.7830 -0.6310 0.0995
-0.5896 -0.6160 0.0562
-0.5911 -0.6637 0.0380
-0.6831 -0.6763 0.0322
-0.4574 -0.6689 -0.0361
-0.7061 -0.6658 -0.0496
-0.5003 -0.6860 -0.0666
-0.6726 -0.6654 -0.0871
-0.7014 -0.6501 -0.1233
-0.4406 -0.6752 -0.2095
-0.5441 -0.6747 -0.2315
-0.6741 -0.6741 -0.4244
-0.5101 -0.7100 -0.4071
-0.2505 -0.6963 -0.3641
-0.2841 -0.6948 -0.2912
-0.6467 -0.6302 0.0790
-0.7699 -0.6595 0.0709
-0.5273 -0.6846 0.0384
-0.4448 -0.6413 0.0189
-0.6381 -0.6655 -0.0543
-0.7893 -0.6705 -0.1869
-0.4720 -0.6664 -0.1727
-0.7452 -0.6466 -0.2178
-0.8778 -0.6891 -0.2591
-0.4023 -0.6598 -0.2470
-0.5745 -0.6321 -0.2827
-0.3875 -0.6985 -0.2801
-0.5790 -0.7002 -0.4063
-0.2882 -0.6788 0.0149
-0.2491 -0.7125 -0.2305
-2.0819 -1.0859 -0.8076
-0.8247 -0.6799 0.2191
-0.9283 -0.7238 -0.5036
-0.3809 -0.6846 0.1397
-0.7095 -0.6683 0.0647
-0.8568 -0.7241 -0.4341
-0.3541 -0.6976 0.1013
-0.4179 -0.6154 -0.1431

