0.3875 -0.6450 0.4959
0.4701 -0.6811 0.7301
0.3100 -0.5470 0.4607
0.0058 -0.0500 0.0139
0.0051 -0.0309 0.0046
0.0037 0.0307 0.0136
0.0191 -0.0288 0.1967
0.0420 -0.0494 -0.0013
0.0552 -0.1607 0.0143
0.0357 0.0045 0.0195
-0.0112 0.0292 -0.0260
-0.0497 -0.1379 0.0387
0.0216 -0.0367 0.0915
0.0028 -0.1203 0.1973
0.0200 -0.0126 -0.0267
0.0044 0.0302 0.0148
0.0462 -0.0492 0.0600
-0.0122 0.0440 -0.0057
-0.0214 0.0116 0.0173
-0.0124 0.0343 -0.0048
0.0531 -0.0046 0.0810
0.0021 -0.0132 0.0917
-0.0399 -0.0552 0.0518
0.0306 0.0217 -0.0086
0.0814 -0.0732 0.1555
-0.0170 -0.1673 0.0948
-0.3114 -0.9383 0.5428
0.0510 -0.2125 0.0848
-0.0440 -0.1030 0.0891
0.1802 -0.3947 0.1130
-0.4831 -1.6189 0.4259
-0.0808 -0.2292 0.6947
1.8241 -0.9441 2.3897
-0.0296 -0.2715 0.1374
-0.2462 -0.6030 0.3662
-0.1056 -0.4144 0.2504
-0.0744 -0.3411 0.4385
0.0990 -0.6116 0.2389
0.1306 -0.3151 0.7717
-0.1140 -0.3763 0.6064
-0.4597 -0.6700 0.5139
0.2077 -1.6256 0.1428
-0.0301 -0.9221 0.4475
-0.3945 -0.1651 0.3590
2.7362 -4.4677 4.4162
-0.1745 -0.4649 0.2991
-0.3024 -0.2044 0.2401
-0.2336 -1.0996 0.3344
0.0047 -0.7358 0.9147
0.4900 -1.2430 1.7606
-1.6916 -0.5444 1.7340
-2.0656 -0.9764 1.6610
-2.3477 -4.7621 3.2995
-1.2843 -3.1507 2.3139
-2.4627 -2.3966 2.5820
-1.3334 -1.6774 1.5923
-0.9925 -5.7191 3.2332
-1.5361 -1.7638 1.6731
-1.7616 -2.3390 2.1949
-2.1108 -2.7367 2.2095
-2.3999 -2.0273 1.7490
2.3727 -16.7009 6.4106
-1.7028 -1.2444 1.5308
-1.6655 -2.1713 2.0785
0.0380 -4.4694 2.3404
-2.5628 -1.2762 2.0786
0.1382 -0.1186 0.0350
0.1492 -0.0926 -0.1001
0.1071 -0.0113 -0.1169
0.1496 -0.0919 -0.0905
-0.0248 -0.0562 0.0294
-0.0257 -0.0441 0.0265
-0.0274 -0.0566 0.0317
-0.0359 -0.0699 0.0625
-0.0275 -0.0505 0.0295
-0.0303 -0.0531 0.0296
-0.0291 -0.0578 0.0309
-0.0313 -0.0503 0.0386
-0.0252 -0.0424 0.0253
-0.0246 -0.0429 0.0260
-0.0350 -0.0568 0.0310
-0.0289 -0.0534 0.0311
-0.0317 -0.0510 0.0307
-0.0630 -0.1173 0.0649
-0.1028 -0.8643 0.3522
0.0738 -0.3709 0.1239
0.3506 -0.8225 0.7448
-0.0303 -0.8228 0.8220
-0.0426 -0.0702 0.0429
0.2114 -0.7924 0.6586
-0.1361 -0.3715 0.4592
0.2067 -0.8101 0.7629
0.1911 -0.7768 0.5805
0.1390 -0.4736 0.4323
0.0548 -0.6624 0.1652
-0.2957 -0.7297 0.9692
0.4544 -1.8772 0.6310
0.2601 -0.8096 1.0744
0.0031 -0.7923 1.0594
-0.0192 -0.7534 1.1596
0.0793 -0.8163 1.1594
0.2562 -0.7674 0.9878
0.0011 -0.7687 1.1100
0.5237 -1.5935 0.4047
0.2857 -1.7463 0.3839
0.2158 -0.8100 0.7695
0.2805 -0.8013 1.0850
-0.2323 -0.8107 0.8019
0.2201 -0.7971 0.6995
0.2039 -0.7902 0.6212
0.2884 -0.9109 1.1079
0.1494 -1.6560 0.3998
0.1895 -0.8084 0.6652
-0.0566 -0.7396 0.9132
-0.3399 -0.8103 0.6497
0.6314 -2.4080 0.4613
0.4290 -1.5678 0.3024
0.2321 -1.4128 0.5075
-0.3410 -1.6281 0.2748
0.1873 -0.7991 0.6055
0.2232 -0.7950 1.0083
-0.0925 -1.6740 0.2859
-0.0326 -0.8124 1.0875
-0.0585 -0.7971 0.7018
-0.2106 -0.8349 0.1291
-0.4740 -1.6984 0.3603
-0.4679 -1.6578 0.3170
-0.6298 -1.5665 0.2819
0.2381 -0.8103 0.9767
-0.5752 -1.3511 3.0958
-0.1902 -1.6253 0.5105
-0.4602 -1.6636 0.4679
-0.5285 -1.6404 0.1810
-0.6175 -1.6251 0.7472
-0.7529 -0.7511 1.5746
0.1703 -1.7238 0.3932
-0.1984 -0.7512 0.9619
-0.3480 -0.7717 0.6060
-0.8157 -1.6455 0.2488
-0.4974 -1.6476 0.1989
-0.7633 -0.7401 1.5637
-0.7856 -1.7028 0.2517
0.0039 -1.6758 0.4978
-0.1948 -1.5540 0.3409
-0.3160 -1.4641 0.5985
-0.3219 -1.5883 0.1398
-0.5343 -1.0427 0.0969
-0.7548 -1.5633 0.1256
-0.9533 -0.7603 1.0451
-0.5005 -1.1474 0.5788
-0.9642 -0.8949 1.0993
-0.9669 -1.7781 0.2602
-1.1808 -0.9108 1.5134
-1.0734 -0.9528 1.2897
0.0146 -1.4456 0.3631
-0.1183 -1.5895 0.3043
-0.6229 -1.5332 0.7082
-0.4749 -1.0124 0.1926
-0.5545 -1.4919 0.1140
-0.9609 -0.7797 1.0240
-1.1357 -0.6116 1.2958
-1.0814 -0.5911 1.2193
-0.8191 -1.3506 0.1002
-0.4719 -1.1323 0.5707
-1.0140 -0.8703 1.1571
-0.7115 -1.4122 0.6199
-0.9975 -0.6119 1.1248
-0.8404 -1.6849 0.4793
-1.1227 -0.7757 1.2930
-1.2039 -0.8398 1.1522
-0.6528 -1.0443 0.0735
-0.0645 -0.9205 0.6779
-1.1208 -0.9273 1.5493
-1.1501 -1.7215 0.8035
-1.1688 -1.8097 0.3930
-0.3223 -0.7948 0.8434
-0.3730 -0.3021 0.0998
-0.5163 -0.3669 0.2834
-0.2345 -0.2924 0.1231
-0.3583 -0.2464 0.1129
-0.2716 -0.1000 0.0459
-0.2956 -0.0751 0.0680
-0.4285 -0.2655 0.1318
-0.2100 -0.6529 0.8237
-0.5515 -1.3389 0.6717
-0.7702 -1.4504 0.3765
-0.9950 -0.7493 1.1778
-0.4513 -1.6005 0.4503
-0.9468 -0.7254 1.0249
-1.0143 -0.6210 1.1048
-0.3433 -0.7709 0.6167
-1.0050 -0.5340 1.1109
-0.5137 -1.5183 0.2815
-0.7666 -1.2658 0.1495
-0.7796 -0.7427 1.5594
-0.2727 -1.7713 0.5871
-0.8168 -0.8006 1.6807
-0.5995 -1.5507 0.7147
-0.2522 -0.7764 1.2166
-0.9251 -0.7780 0.9592
0.2392 -1.4762 0.5250
0.0025 -0.7505 1.1332
-0.0008 -0.7826 1.1328
-0.0635 -0.5740 0.5822
-0.0437 -0.7404 0.9832
-0.1945 -1.7585 0.5541
-0.3328 -1.5697 0.2669
-0.5564 -1.2748 0.6439
-0.0282 -0.7650 1.1782
-0.2603 -0.7948 1.2716
0.2286 -0.8091 1.0299
-0.0434 -0.7754 0.7639
0.2696 -1.5974 3.5225
0.2325 -0.7113 0.8758
0.1971 -0.7421 0.6530
0.1889 -0.7335 0.6107
0.2578 -0.7575 1.0286
0.2360 -0.7375 0.7677
0.2274 -0.7681 0.7356
0.1823 -0.7581 0.7104
0.3321 -0.7868 0.7102
0.3624 -0.8106 0.8215
0.2328 -0.7893 0.9201
-0.0138 -0.7653 1.0226
-0.0327 -0.2503 0.2450
0.3366 -1.4600 0.5114
0.3619 -1.5665 0.3146
-0.4093 -1.5895 0.3575
0.1568 -0.6195 0.5460
0.4677 -0.6981 1.0038
-0.2636 -0.6871 0.9585
0.2173 -0.7125 0.7421
-0.0662 -0.6846 0.8439
0.1653 -0.6699 0.8565
0.0406 -0.6726 0.9470
0.1899 -0.7112 0.6760
0.3426 -0.7149 0.6419
0.0958 -0.6995 0.6166
0.2094 -0.6563 0.8980
0.4690 -0.6996 0.8444
-0.2721 -0.6738 0.9134
0.3825 -0.6875 0.4547
0.1627 -0.6841 0.9542
0.1689 -0.6986 0.5681
0.2148 -0.6863 0.8480
-0.0260 -0.6723 0.8983
-0.0450 -0.6670 0.8927
0.4059 -0.7125 0.9382
0.1724 -0.7256 0.5508
0.1079 -0.6802 0.6669
-0.2059 -0.6244 0.6891
0.4245 -0.7039 0.5704
0.4286 -0.7185 0.5789
0.1746 -0.7202 0.6806
-0.1441 -0.6932 0.7016
0.4163 -0.7307 0.4572
0.4542 -0.7148 0.6625
0.1842 -0.7723 0.5756
0.2100 -0.7558 0.7464
0.0395 -0.6961 0.8677
-0.0780 -0.7096 0.7042
-0.2980 -0.7015 0.9226
0.4644 -0.7053 0.8267
-0.0680 -0.7065 0.8620
0.1595 -0.7008 0.5856
0.1925 -0.7055 0.8163
0.3941 -0.7100 0.4632
-0.2925 -0.6792 0.7746
-0.0937 -0.7302 0.5312
0.4652 -0.7098 0.8264
0.2026 -0.6974 0.9249
-0.0337 -0.7056 1.0324
-0.0421 -0.7978 0.9595
0.4503 -0.6813 0.9793
0.1872 -0.7007 0.7677
-0.0480 -0.6651 0.8842
0.4519 -0.7185 0.6626
0.2184 -0.6921 0.9348
-0.0623 -0.7119 0.8018
0.2216 -0.7344 0.7573
0.2045 -0.7034 1.0416
-0.2644 -0.7020 1.1106
0.1997 -0.7086 0.7299
-0.0575 -0.6747 0.8126
0.1046 -0.7050 0.8887
-0.1443 -0.6926 0.8774
-0.2637 -0.6791 0.9376
0.4607 -0.6942 0.8321
0.1565 -0.7159 0.5419
0.1085 -0.6850 0.6660
0.2238 -0.6707 0.9773

