-0.0022 -0.0261 -0.0007
-0.0078 -0.0538 -0.0066
-0.0087 -0.0351 -0.0120
0.0001 -0.0054 -0.0021
-0.0002 -0.0106 0.0032
0.0064 -0.0175 0.0065
0.0034 -0.0120 -0.0023
0.0070 -0.0147 0.0067
0.0044 -0.0108 -0.0028
-0.0050 -0.0176 -0.0029
-0.0064 -0.0118 -0.0003
0.0099 -0.0349 -0.0057
0.0062 -0.0216 -0.0030
-0.0239 -0.0499 0.0107
-0.0062 -0.0340 0.0047
-0.0015 -0.0286 0.0011
0.0126 -0.0211 0.0106
-0.0031 -0.0390 -0.0056
0.0147 -0.0510 -0.0036
-0.0079 -0.0186 0.0104
0.0076 -0.0290 -0.0023
0.0120 -0.0674 0.0322
0.0011 0.0035 0.0017
0.0080 -0.0189 -0.0005
0.0136 -0.0493 0.0014
0.0094 -0.0092 0.0061
-0.0130 -0.0268 0.0107
-0.0011 -0.0542 -0.0115
-0.0287 -0.0419 0.0102
-0.0248 -0.0900 0.0056
0.0100 -0.0426 -0.0049
-0.1073 -0.3764 0.1974
-0.1060 -0.3850 -0.0943
0.0900 -0.3905 0.2084
-0.1909 -0.3953 -0.1319
0.0142 -0.3481 -0.0489
0.0026 -0.3893 -0.0568
-0.0208 -0.3705 -0.0248
0.0311 -0.3751 0.0045
0.1204 -0.3787 0.1760
-0.1601 -0.3727 0.0256
0.0312 -0.3897 0.0570
0.1057 -0.3075 0.1538
0.1182 -0.3801 0.1676
0.0065 -0.3770 0.0747
-0.1978 -0.3782 0.0582
0.0206 -0.3919 0.1094
0.0855 -0.3622 0.1343
0.1085 -0.3769 -0.0272
0.0353 -0.3756 -0.0565
-0.0679 -0.3841 -0.1152
0.1397 -0.3731 0.1733
0.0865 -0.3776 0.0689
-0.1242 -0.3763 0.1501
-0.1504 -0.3792 0.1345
-0.1198 -0.3556 0.1202
-0.1665 -0.3862 0.0087
0.1029 -0.3799 0.0249
0.0165 -0.3713 -0.0763
-0.0147 -0.3697 -0.0963
-0.1461 -0.3753 0.0276
0.0696 -0.3888 0.0927
-0.0846 -0.3706 -0.1229
-0.2423 -0.3771 0.1337
0.1160 -0.3725 0.0124
0.0319 -0.3588 -0.0823
-0.1336 -0.3696 -0.0044
0.0126 -0.3716 0.1421
-0.1546 -0.3775 0.1841
-0.0093 -0.3736 -0.0484
-0.2026 -0.3860 -0.1213
0.0445 -0.3673 0.0356
-0.1883 -0.3732 0.1495
-0.0997 -0.3733 0.0834
-0.0629 -0.3750 0.0573
0.0082 -0.3496 -0.0563
0.0789 -0.3746 0.1356
-0.0391 -0.3790 -0.1109
-0.0826 -0.3697 -0.0812
0.0253 -0.3693 0.0033
0.0096 -0.3858 0.0897
-0.0138 -0.3790 -0.0175
-0.0018 -0.3449 -0.0277
0.0802 -0.3752 0.1652
0.1345 -0.3779 0.1604
0.1595 -0.3713 -0.0118
-0.1716 -0.3641 -0.0112
-0.0011 -0.3705 -0.0931
-0.0153 -0.3768 0.0049
0.0437 -0.3900 -0.0582
0.0202 -0.3896 0.1801
-0.0993 -0.4267 0.1936
0.0367 -0.3730 0.0191
-0.0342 -0.3778 -0.1132
-0.0229 -0.3850 -0.0800
0.0252 -0.3863 0.1508
-0.1142 -0.3858 0.0067
-0.1662 -0.3701 0.0299
0.0866 -0.4029 0.0422
-0.0578 -0.3723 0.0136
0.1175 -0.3555 0.0250
-0.1186 -0.3628 0.0023
-0.1881 -0.3701 -0.0159
0.1005 -0.3792 -0.1000
0.0668 -0.3763 0.1909
0.1524 -0.3763 0.1396
-0.0836 -0.3806 0.2116
0.0153 -0.3741 0.1331
-0.0166 -0.3620 -0.0070
-0.2134 -0.3743 0.1726
-0.1003 -0.3909 0.2206
0.0088 -0.3873 0.0997
0.1759 -0.3865 0.2043
0.1091 -0.3607 0.1345
-0.0019 -0.3512 0.0524
0.0981 -0.3808 -0.0332
-0.0876 -0.3774 0.2164
0.0625 -0.3726 -0.0212
-0.2459 -0.3809 0.1982
-0.1078 -0.3844 0.1224
-0.1372 -0.3804 0.0653
-0.1123 -0.3865 0.0689
-0.1775 -0.3764 0.0482
-0.0359 -0.3646 0.0623
-0.1003 -0.3696 0.0267
-0.0344 -0.3769 0.0083
-0.1696 -0.3382 -0.0322
0.0880 -0.4232 -0.0135
-0.1462 -0.3526 -0.0753
-0.0611 -0.2655 0.0679
-0.0496 -0.3933 -0.0423
0.0694 -0.3888 0.1036
0.0920 -0.3743 0.1666
-0.0435 -0.3700 0.0421
-0.1331 -0.3648 0.1169
0.0819 -0.3762 0.0609
0.0247 -0.3750 -0.0694
0.0279 -0.3511 -0.0481
0.0466 -0.3793 0.0750
0.0361 -0.3778 -0.0315
-0.1718 -0.3816 0.0641
0.0137 -0.3748 0.1633
0.1137 -0.3719 0.1551
-0.0290 -0.3754 -0.0948
0.0559 -0.3904 -0.0827
-0.0144 -0.3793 0.2255
0.0394 -0.3718 0.1183
-0.0269 -0.3768 0.2193
-0.1056 -0.3859 0.0593
0.0134 -0.3849 0.2137
-0.2832 -0.3798 0.1344
0.1473 -0.3916 0.1687
-0.0682 -0.3727 0.2100
-0.0125 -0.3836 0.1814
0.0470 -0.3967 0.1582
-0.2743 -0.3692 0.1017
-0.1217 -0.3834 0.1120
-0.1506 -0.3654 0.0313
-0.1593 -0.3580 0.0213
0.0518 -0.3787 0.0244
-0.2277 -0.3695 -0.0747
-0.0923 -0.3730 -0.0987
-0.0433 -0.3692 -0.1006
0.0240 -0.3883 -0.1083
-0.1261 -0.3755 0.0441
0.0658 -0.3732 -0.0775
0.0927 -0.3717 0.1498
-0.0032 -0.3722 0.0714
-0.0060 -0.3728 0.0959
0.1658 -0.3906 0.1261
0.0852 -0.3723 0.1652
0.1131 -0.3723 0.1681
-0.0427 -0.3931 0.2275
-0.3315 -0.4202 -0.0796
-0.1377 -0.3720 0.1360
0.1356 -0.3642 0.1247
0.0989 -0.3727 0.1814
-0.0344 -0.3704 -0.0405
0.0568 -0.4007 -0.0364
0.0344 -0.3727 0.1082
0.1387 -0.4001 0.1056
0.0410 -0.3759 -0.0236
0.0056 -0.3835 -0.0222
-0.1356 -0.3760 0.1954
-0.1259 -0.4028 0.1062
0.0968 -0.4006 0.0873
-0.1915 -0.3740 0.0768
-0.1795 -0.3770 0.0480
-0.0666 -0.3707 0.0465
-0.1854 -0.3772 0.0351
-0.0080 -0.3714 0.0192
0.0388 -0.3704 0.0368
0.0748 -0.3712 0.0374
0.1102 -0.3757 0.0285
0.1013 -0.3715 0.0475
0.0964 -0.3684 0.0947
-0.2217 -0.3790 0.2282
0.1040 -0.3686 0.1596
-0.1538 -0.3641 0.1691
-0.0467 -0.3713 0.1580
0.0940 -0.3751 0.1303
0.0516 -0.3772 0.0728
0.0880 -0.3907 0.0077
-0.2780 -0.3824 -0.0653
-0.0030 -0.3559 -0.0639
-0.0526 -0.3516 -0.0873
-0.1194 -0.3848 0.0030
-0.0550 -0.3796 0.2487
-0.0381 -0.3714 0.2379
0.0610 -0.3703 -0.0769
0.1395 -0.3948 0.0143
0.1278 -0.3669 0.1511
-0.0912 -0.3774 0.1130
-0.0409 -0.3790 0.1052
-0.0769 -0.3322 -0.0360
-0.1535 -0.3832 0.0086
0.0954 -0.3691 0.0345
0.1307 -0.3908 0.0809
0.1129 -0.3552 0.0421
0.1007 -0.3852 0.0355
0.0687 -0.3766 0.0356
0.1149 -0.3869 0.0067
-0.2086 -0.3743 0.3238
-0.0544 -0.3598 0.2503
0.1568 -0.3556 0.0662
-0.0266 -0.3693 0.1002
-0.1867 -0.3553 0.0624
-0.0427 -0.3679 0.2526
-0.0491 -0.3386 0.0920
0.0259 -0.3755 0.0541
0.0534 -0.3593 0.0258
-0.3570 -0.4184 0.0839
0.0598 -0.3457 -0.0158
0.1691 -0.3634 0.1486
0.1346 -0.3721 0.1400
0.1103 -0.3801 0.1956
0.1044 -0.3779 0.1832
-0.2391 -0.3780 0.3068
-0.0795 -0.3558 0.2412
-0.0415 -0.3766 0.2328
0.0699 -0.3686 0.1900
0.1280 -0.3713 0.1718
-0.0811 -0.4094 0.2214
0.0513 -0.3661 0.0539
0.0160 -0.3975 0.1071
-0.3209 -0.3755 0.2247
0.0393 -0.3777 0.1183
-0.3202 -0.3902 0.2220
-0.1355 -0.3614 0.3993
0.0220 -0.3851 0.3307
0.0285 -0.3843 0.3221
0.1505 -0.3768 0.2623
0.1668 -0.3745 0.2532
0.2001 -0.3638 0.2325
0.2154 -0.3540 0.1976
-0.2999 -0.3982 0.2054
0.0501 -0.3686 0.0775
-0.1195 -0.3833 0.2548
0.1549 -0.3763 0.1563
0.1115 -0.3661 0.1531
-0.0940 -0.3815 0.3820
0.0614 -0.3836 0.3057
0.2161 -0.3766 0.2381
0.1794 -0.3545 0.2347
-0.0928 -0.3711 0.0561
0.1665 -0.3614 0.1684
-0.0049 -0.3626 0.3402
0.1870 -0.3740 0.2270
-0.2178 -0.3690 0.3134
-0.2127 -0.3528 0.2580
-0.0972 -0.3721 0.1466
-0.3000 -0.4118 0.1998
-0.0362 -0.3628 0.1061
0.0692 -0.3508 0.0546
0.0837 -0.3586 0.0462
-0.2321 -0.3627 0.1117
0.0324 -0.3671 0.1855
-0.0568 -0.3691 0.0899
0.1006 -0.3812 0.0455
0.1218 -0.3833 0.3135
-0.2213 -0.3902 0.4892
-0.1367 -0.3562 0.4061
0.0319 -0.3519 0.3234
0.0447 -0.3476 0.3148
-0.1826 -0.3737 0.4346
-0.0389 -0.3810 0.3575
-0.2837 -0.4153 0.3153
-0.3172 -0.4021 0.2488
-0.1790 -0.4005 0.1728
-0.3701 -0.4567 0.2234
0.1496 -0.3916 0.0172
-0.0122 -0.3716 0.3752
0.1403 -0.3751 0.2967
0.1854 -0.3829 0.2030
0.1839 -0.3752 0.1714
0.1599 -0.3631 0.1007
0.0080 -0.3882 0.0845
-0.0212 -0.3813 0.2029
0.1267 -0.3784 0.0638
0.0061 -0.3736 -0.0733
-0.2596 -0.3696 0.1669
0.1605 -0.3636 0.1243
-0.1544 -0.4025 0.1459
-0.1004 -0.3669 0.1844
-0.1001 -0.3701 0.2718
0.0310 -0.3841 0.0496
0.0511 -0.3743 0.0527
-0.1280 -0.3712 0.5186
0.1255 -0.3564 0.3387
0.1738 -0.3648 0.3233
-0.0336 -0.3603 0.2182
0.0295 -0.3787 0.0625
0.0028 -0.3900 0.4172
0.1314 -0.3991 0.3367
0.0251 -0.3882 0.0548
-0.0138 -0.3550 0.0770
-0.0499 -0.4102 0.0034
-0.1936 -0.4064 0.4852
0.0087 -0.3695 0.0778
0.0052 -0.3949 0.0876
0.0099 -0.3642 0.0966
0.0641 -0.3707 0.1068
-0.2330 -0.3662 0.4783
0.0675 -0.3822 0.1196
0.0794 -0.3892 0.1364
-0.2590 -0.3669 0.2983
0.1347 -0.3749 0.1590
0.1178 -0.3784 0.1651
-0.2457 -0.4119 0.3352
-0.2251 -0.3547 0.3182
-0.0489 -0.3820 0.2553
-0.2164 -0.3684 0.3359
0.1493 -0.3755 0.2239
0.2343 -0.3586 0.3346
0.2132 -0.3494 0.3369
0.0107 -0.3710 0.2799
0.1529 -0.3771 0.2065
0.2337 -0.3671 0.3193
0.1709 -0.3749 0.1864
0.0464 -0.3616 0.4304
0.1023 -0.3728 0.2143
-0.1254 -0.3930 0.5359
0.0527 -0.3775 0.2815
0.1933 -0.3734 0.2212
-0.0092 -0.3619 0.4324
-0.0047 -0.3646 0.3289
-0.0674 -0.3623 0.2590
-0.1442 -0.3719 0.2911
0.2174 -0.3833 0.2281
-0.0430 -0.3763 0.2032
0.1410 -0.3909 0.1250
-0.0740 -0.4037 0.0542
0.1326 -0.3687 0.1248
0.0910 -0.3888 0.0156
-0.1926 -0.3825 0.4537
0.0185 -0.3690 0.3734
0.1308 -0.3746 0.1030
-0.0574 -0.3975 0.0839
-0.2390 -0.3710 0.2239
-0.0432 -0.3732 0.1466
-0.1510 -0.3798 0.1369
0.1012 -0.3819 0.0554
-0.1803 -0.3605 0.1631
-0.1973 -0.3528 0.1752
-0.0972 -0.3769 0.4010
-0.0067 -0.3730 0.2104
-0.1141 -0.3823 0.3973
0.0419 -0.3766 0.4635
0.2041 -0.3758 0.3494
0.0281 -0.3941 0.4483
0.2358 -0.3889 0.2871
0.0677 -0.3706 0.3705
-0.0519 -0.3778 0.3935
0.2362 -0.3719 0.2277
0.1360 -0.3710 0.1749
-0.0879 -0.3730 0.1139
-0.2147 -0.4133 0.1549
0.2303 -0.3862 0.3984
-0.0347 -0.3674 0.2281
0.0584 -0.3579 0.4697
0.0147 -0.3730 0.1365
0.0957 -0.3794 0.1621
0.1417 -0.3635 0.2716
0.1811 -0.3907 0.4162
0.0058 -0.3820 0.4010
0.1233 -0.3793 0.3583
0.0737 -0.3792 0.1421
0.1039 -0.3870 0.2909
0.1710 -0.3668 0.3157
0.2361 -0.3716 0.3873
0.1341 -0.3797 0.1602
0.0451 -0.3680 0.4929
-0.1441 -0.4086 0.6558
0.0670 -0.3655 0.4698
0.2102 -0.3722 0.3520
0.0165 -0.3908 0.4514
-0.0893 -0.3961 0.2170
-0.1094 -0.4089 0.2236
-0.1228 -0.3886 0.5585
0.1108 -0.3843 0.2965
0.1242 -0.3590 0.2086
0.0618 -0.3654 0.2398
0.1029 -0.3648 0.2487
0.1831 -0.3645 0.1999
0.2642 -0.3656 0.3588
0.0880 -0.4046 0.2496
0.2193 -0.3585 0.3644
0.1100 -0.3664 0.4417
-0.1377 -0.3548 0.3281
-0.0491 -0.3519 0.2805
-0.0488 -0.3872 0.5664
-0.1705 -0.4164 0.5254
0.0439 -0.3666 0.2208
0.1223 -0.3424 0.0266
0.1638 -0.3584 0.2703
0.1762 -0.3676 0.1471
0.1970 -0.3708 0.3317
0.0347 -0.3779 0.0351
0.1530 -0.3643 0.2352
-0.1273 -0.3810 0.3718
-0.1688 -0.3839 0.3757
0.2493 -0.3733 0.3399
0.0494 -0.3784 0.5266
-0.0567 -0.3639 0.5653
0.0513 -0.3511 0.4657
0.1159 -0.3652 0.1774
-0.3582 -0.4009 0.2597
-0.2617 -0.3919 0.4184
-0.1963 -0.3714 0.4123
-0.1220 -0.3777 0.1117
0.1248 -0.3981 0.2837
0.1053 -0.3658 0.3153
0.2050 -0.3735 0.3776
0.0378 -0.3672 0.0611
0.1698 -0.3654 0.1404
0.1788 -0.3883 0.3165
0.0696 -0.3690 0.0926
0.2624 -0.3637 0.3837
0.1622 -0.3561 0.4459
0.2507 -0.3846 0.3944
0.2842 -0.3772 0.3646
-0.0748 -0.3467 0.5935
-0.1008 -0.3811 0.5445
0.0355 -0.3750 0.5272
0.2115 -0.3675 0.3948
0.2309 -0.4056 0.3947
-0.1520 -0.3920 0.5364
0.0241 -0.3715 0.1274
-0.0142 -0.3891 0.3863
0.1583 -0.3655 0.2561
0.0956 -0.3577 0.1496
0.0452 -0.3699 0.1910
0.1617 -0.3614 0.1451
-0.0535 -0.3590 0.3573
0.0777 -0.3760 0.4659
0.2154 -0.3643 0.1954
0.0839 -0.3697 0.2293
0.2045 -0.3566 0.4183
-0.1019 -0.3710 0.3543
-0.0100 -0.3711 0.2235
0.0929 -0.3681 0.1161
0.2398 -0.3738 0.3907
0.0640 -0.3890 0.4661
0.0668 -0.3351 0.3765
0.1849 -0.3529 0.2233
0.1553 -0.3995 0.2150
0.0671 -0.4010 0.0512
-0.0318 -0.3544 0.0685
-0.2919 -0.3887 0.1350
-0.0996 -0.4024 0.0967
-0.0017 -0.3816 0.4145
0.0242 -0.3367 0.1047
0.0880 -0.3724 0.1524
-0.0530 -0.3821 0.3991
0.1287 -0.3678 0.3509
0.1901 -0.3784 0.3561
-0.0528 -0.3724 0.2580
-0.0838 -0.3589 0.5468
0.1463 -0.3799 0.2784
0.1335 -0.3563 0.0174
0.0046 -0.3775 0.2293
0.0293 -0.3700 0.4712
0.1591 -0.3723 0.1735
-0.0567 -0.3611 0.0634
0.2523 -0.3660 0.3551
0.2579 -0.3671 0.3516
0.0627 -0.3586 0.3621
0.1731 -0.3777 0.1974
0.1040 -0.3707 0.4468
0.2011 -0.3782 0.2776
0.0636 -0.3798 0.3050
-0.0441 -0.3634 0.0894
-0.0345 -0.3735 0.4841
0.0239 -0.3693 0.3269
-0.0712 -0.4060 0.1771
0.0551 -0.3537 0.1359
0.0395 -0.3479 0.0411
-0.0338 -0.3741 0.2529
-0.2444 -0.3975 0.3600
-0.2190 -0.3733 0.4549
-0.0891 -0.3642 0.1145
0.2088 -0.3469 0.3966
-0.0274 -0.3823 0.5583
0.1267 -0.3702 0.3635
0.0824 -0.3929 0.0064
-0.0349 -0.3492 0.0497
0.0664 -0.3891 0.0358
-0.0355 -0.3311 0.0990
0.0897 -0.3847 0.3042
0.1528 -0.3867 0.2653
0.0976 -0.3778 0.2692
0.0422 -0.3973 0.2944
0.0190 -0.3582 0.1457
0.1291 -0.3770 0.1116
0.0727 -0.3651 0.2542
0.1339 -0.3786 0.1231
0.0847 -0.3590 0.2388
-0.0269 -0.2984 0.2282
-0.0224 -0.3794 0.3462
-0.1689 -0.3526 0.4926
0.2352 -0.3739 0.3667
-0.1237 -0.3692 0.4141
-0.1921 -0.3692 0.4277
0.1146 -0.3692 0.0142
0.2219 -0.3785 0.3106
0.1938 -0.3663 0.1241
-0.3318 -0.4090 0.2186
-0.3160 -0.3748 0.1974
-0.1388 -0.3996 0.1297
-0.1584 -0.3922 0.1409
-0.3105 -0.3759 0.1519
-0.2382 -0.3740 0.2292
0.2472 -0.3776 0.3758
-0.1256 -0.4009 0.1905
-0.1020 -0.3721 0.2026
0.0696 -0.3783 0.1204
-0.0417 -0.3821 0.2402
0.1247 -0.3749 0.2755
0.2763 -0.3787 0.2170
0.2799 -0.3846 0.2278
0.1936 -0.3657 0.3230
0.0450 -0.4033 0.0208
0.0381 -0.3895 0.0313
-0.0321 -0.3805 0.3605
-0.2159 -0.3897 0.4555
-0.0969 -0.3940 0.5601
0.1626 -0.3647 0.2568
-0.0338 -0.3769 0.3568
0.2046 -0.3904 0.2380
-0.1971 -0.3966 0.4137
0.1869 -0.3794 0.2024
-0.2075 -0.3699 0.3438
-0.0826 -0.3848 0.2749
0.1648 -0.3730 0.3554
-0.2132 -0.3802 0.3111
0.1785 -0.3999 0.1480
-0.2646 -0.3759 0.3062
-0.2974 -0.3663 0.2877
-0.2740 -0.3717 0.2826
0.0414 -0.3960 0.4507
-0.1935 -0.3727 0.4335
0.0488 -0.3780 0.4652
-0.1623 -0.3677 0.4819
0.2676 -0.3600 0.2107
0.1869 -0.3569 0.1704
-0.0509 -0.3806 0.1435
0.1004 -0.3897 0.0376
0.1858 -0.4199 0.1779
0.0357 -0.3867 0.4817
0.2019 -0.3719 0.3317
-0.1535 -0.3531 0.0716
-0.0053 -0.3947 0.4220
-0.0989 -0.3684 0.0639
-0.2687 -0.3656 0.1702
-0.2495 -0.3829 0.2009
-0.3524 -0.3869 0.2259
-0.0854 -0.3928 0.2521
0.0975 -0.3790 0.1688
0.0658 -0.3921 0.0909
0.2174 -0.3690 0.3503
0.0267 -0.3693 0.1297
0.0567 -0.3630 0.1381
0.1353 -0.3858 0.3519
-0.2242 -0.3594 0.3245
-0.2390 -0.3802 0.3681
-0.2740 -0.3839 0.3863
0.2857 -0.3762 0.3635
-0.0036 -0.3801 0.3357
0.1624 -0.3569 0.2368
0.2270 -0.3857 0.2013
0.0807 -0.1645 0.2328
-0.0943 -0.3858 0.5691
-0.1766 -0.3797 0.5338
0.1650 -0.3697 0.1457
0.1860 -0.3935 0.2933
-0.1428 -0.3745 0.2953
0.2439 -0.3702 0.1836
-0.0253 -0.3673 0.2619
0.1889 -0.3986 0.4217
-0.0815 -0.3994 0.5276
-0.1465 -0.3926 0.5265
0.0484 -0.3778 0.1377
0.1234 -0.4171 0.0602
-0.3047 -0.3275 0.0981
0.0677 -0.3788 -0.0246
0.2203 -0.3836 0.4150
0.2500 -0.3640 0.3851
0.0370 -0.3796 0.5322
0.2340 -0.3670 0.3653
0.2431 -0.3673 0.3543
0.2254 -0.3717 0.1563
0.1338 -0.3480 0.4419
0.2403 -0.3617 0.3178
0.2390 -0.3820 0.2298
0.1014 -0.3938 0.5059
0.2183 -0.3977 0.3841
0.2873 -0.4192 0.2357
0.2619 -0.3549 0.3347
-0.0421 -0.3757 0.2199
-0.0599 -0.3972 0.5688
-0.0844 -0.3842 0.5975
-0.0351 -0.3800 0.4901
-0.1556 -0.3447 0.5004
-0.1801 -0.3840 0.4261
-0.3136 -0.3562 0.2510
0.0630 0.0174 0.1369
0.1067 -0.3883 0.1350
0.1146 -0.3935 0.1558
0.0934 -0.4076 0.0301
0.1300 -0.4014 0.1014
0.2558 -0.4038 0.2084
0.0564 -0.3853 0.4909
-0.0686 -0.3843 0.2445
0.1031 -0.4054 -0.0354
-0.0517 -0.3872 0.0428
-0.0484 -0.3932 0.2357
0.1868 -0.3867 0.2034
0.3055 -0.3811 0.3150
0.0109 -0.3830 0.1446
-0.0267 -0.3894 0.3507
-0.0869 -0.3978 0.3122
0.0736 -0.3703 0.0012
-0.1399 -0.4132 0.1146
0.2792 -0.3969 0.3560
0.0810 -0.3869 0.0414
-0.0107 -0.3945 0.0699
0.2379 -0.4138 0.2226
0.0610 -0.3954 0.3096
0.2425 -0.3971 0.3281
0.1601 -0.3812 0.2408
0.2411 -0.4133 0.2972
0.1859 -0.3821 0.1711
0.1308 -0.3627 0.1509
-0.0317 -0.3973 -0.0285
-0.0250 -0.3931 -0.0083
-0.0265 -0.4056 -0.0220
0.0189 -0.4007 -0.0359
-0.1165 -0.4139 0.0049
-0.1453 -0.4004 0.5406
0.2173 -0.3659 0.3491
-0.2417 -0.4155 0.3602
-0.1224 -0.4184 0.0856
-0.2644 -0.4038 0.3524
-0.2187 -0.3846 0.1306
-0.1406 -0.3998 0.0474
-0.1051 -0.3864 0.5507
0.1415 -0.4052 0.2829
0.0966 -0.4154 0.0517
0.1309 -0.4015 0.1228
0.0446 -0.4091 0.1367
0.0546 -0.4194 0.1264
0.2454 -0.3961 0.1847
0.2364 -0.3529 0.3604
0.1573 -0.3795 0.2138
0.1014 -0.4196 0.1584
0.2670 -0.3974 0.3476
0.1702 -0.4004 0.1495
-0.0373 -0.4180 0.3034
0.1189 -0.4237 -0.0603
0.0839 -0.3874 0.0285
0.0924 -0.3908 0.1306
0.0633 -0.4000 -0.0321
-0.0431 -0.3986 0.5019
-0.0050 -0.3694 0.2739
0.1416 -0.3304 0.1725
0.1353 -0.3814 0.1402
0.1050 -0.4152 -0.0872
0.2295 -0.3947 0.1553
0.2141 -0.3983 0.1251
0.2365 -0.3981 0.2898
0.2670 -0.3454 0.2097
0.0447 -0.3866 0.4470
0.0602 -0.4079 -0.0687
0.2426 -0.3798 0.3427
0.0217 -0.3892 -0.0579
0.1920 -0.3872 0.3600
0.1609 -0.4006 0.3013
0.1617 -0.3734 0.2589
0.2094 -0.3768 0.3882

