0.0092 -0.0128 -0.0006
0.0034 -0.0137 0.0028
-0.0109 -0.0187 -0.0017
0.0121 -0.0282 0.0132
-0.0007 -0.0071 -0.0051
-0.0006 -0.0073 -0.0045
-0.0017 -0.0213 0.0201
-0.0005 -0.0436 0.0176
-0.0007 -0.0082 -0.0045
-0.0025 -0.0061 -0.0063
-0.0078 -0.1428 -0.0063
0.0018 -0.0147 -0.0008
0.0017 -0.0600 0.0210
-0.0062 -0.0062 -0.0073
-0.0021 -0.0345 0.0117
0.0008 -0.0132 -0.0045
0.0011 -0.0141 -0.0056
0.0010 -0.0140 -0.0046
-0.0027 -0.0268 0.0040
0.0107 -0.0405 0.0028
-0.0014 -0.0332 0.0101
0.0298 -0.0823 0.0586
0.1455 -0.3876 0.2140
0.1245 -0.3901 0.2068
0.1052 -0.3947 0.2019
-0.1213 -0.6068 0.0559
0.1119 -0.3875 0.1729
0.0626 -0.3577 0.2981
0.1372 -0.3842 0.2335
-0.0239 -0.3861 0.3523
0.0514 -0.4091 0.1624
0.0698 -0.3785 0.2541
0.0961 -0.3950 0.2082
0.0540 -0.3884 0.3195
0.1017 -0.3840 0.2155
0.1208 -0.3847 0.1857
0.1163 -0.3617 0.2305
0.1060 -0.3923 0.2425
0.1909 -0.3856 0.2641
0.1327 -0.4016 0.0959
0.1246 -0.3734 0.1562
-0.0192 -0.1310 -0.0059
0.0568 -0.2940 -0.0480
0.1196 -0.4098 0.0689
0.0937 -0.3909 0.1879
-0.1884 -0.6689 0.1260
-0.2099 -0.6601 0.1360
-0.0241 -0.3824 0.5469
-0.2240 -0.7681 0.6504
-0.2751 -0.9058 0.1522
-0.2441 -0.6186 0.8416
-0.2012 -0.6717 0.1383
-0.1915 -0.7261 0.5876
-0.1175 -0.6544 0.1969
-0.0564 -0.4118 0.4600
-0.0631 -0.6217 0.1546
-0.1719 -0.6911 0.0956
-0.0693 -0.7299 0.1076
0.0709 -0.3666 0.2963
-0.2947 -0.6899 0.1363
-0.0529 -0.4210 0.4786
-0.0300 -0.3912 0.4929
0.1195 -0.4017 0.2430
0.1199 -0.3891 0.2450
0.0884 -0.3883 0.1995
0.0733 -0.3991 0.2579
-0.0225 -0.3808 0.4954
0.1682 -0.3809 0.3739
0.0134 -1.2799 0.0811
-0.6081 -1.3007 0.2371
0.0371 -1.3188 0.0979
-0.0133 -1.2575 0.0960
-0.3989 -0.7602 0.5461
0.0691 -0.1038 0.1218
-0.0384 -1.2607 0.1333
-0.0459 -1.2737 -0.0727
0.0052 -1.2762 0.0985
-0.3308 -1.3469 -0.0524
-0.3071 -0.8490 0.1254
-0.3287 -0.6997 0.2792
0.1297 -0.3822 0.3792
0.0759 -1.2115 0.1955
0.0008 -0.3757 0.3931
-0.1101 -0.4774 0.0422
-0.3962 -1.3710 0.1921
-0.2968 -0.7456 0.6464
-0.6302 -1.2989 0.0816
-0.4256 -0.7836 0.5725
-0.4256 -0.7633 0.5028
-0.0862 -1.2760 -0.1417
0.0978 -0.3890 0.2211
-0.2161 -0.7788 0.7963
-0.5593 -1.2674 0.0811
-0.5976 -1.2787 0.2882
-0.2387 -1.0643 1.1324
-0.6527 -1.3176 0.2601
-0.6842 -1.1561 1.7738
-0.6866 -1.2966 0.2543
-0.5291 -1.2941 0.1960
-0.3695 -0.7573 0.4271
-0.5815 -1.2902 0.2261
-0.6628 -1.2549 -0.0090
0.0188 -0.6768 0.2378
-0.3768 -0.7626 0.6229
-0.3721 -0.7297 0.4852
-0.0984 -1.3109 0.0508
-0.2594 -0.6692 0.1404
-0.7152 -1.2668 0.1622
0.1806 -0.3479 0.3081
-0.1749 -0.7580 0.9131
-0.1763 -1.3169 -0.0394
-0.3232 -1.2965 0.0879
-0.3324 -1.2930 -0.0057
-0.2821 -0.8291 0.1215
-0.4303 -1.2659 -0.1301
-0.3813 -1.3827 0.0334
-0.3981 -1.1808 0.1911
-0.3974 -1.3624 0.1396
-0.5897 -1.4207 0.1013
-1.2438 -1.3617 0.8677
-1.0697 -1.6517 1.2522
-0.7499 -1.2970 -0.0162
-0.9967 -1.3724 0.2447
-0.7196 -1.3507 -0.2065
0.1921 -1.2603 -0.0100
-0.4671 -1.2973 0.0082
-0.5991 -1.3690 0.0327
-0.7120 -1.3332 0.1788
-0.8991 -1.2169 0.3679
-0.8441 -1.3191 0.1679
-1.9748 -1.2752 1.3968
-0.7926 -1.3474 -0.2244
-1.1977 -1.3895 0.9373
-1.4687 -1.4449 1.2107
-1.0504 -1.3628 0.4634
-1.5346 -1.4258 0.8694
-2.3583 -1.4784 1.3144
-1.0570 -1.2903 -0.0201
-2.0338 -1.4069 0.8370
-0.8460 -1.3414 -0.3264
-1.6547 -1.3110 0.1568
-1.4182 -1.4006 -0.1368
-1.0633 -1.3011 -0.4034
-0.9279 -1.2688 -0.3548
-1.3198 -1.3912 -0.1720
-0.8974 -1.3452 -0.2197
-1.0416 -1.3068 -0.4286
-1.0231 -1.3793 0.7722
-1.2759 -1.3583 0.2725
-0.9479 -1.3529 0.0311
-0.7411 -1.3586 0.3615
-0.9017 -1.2854 0.0357
-1.2776 -1.3814 0.4024
-1.4127 -1.3360 0.9493
-1.3280 -1.3315 -0.1978
-1.7494 -1.3881 1.2602
-0.8659 -1.3499 -0.4717
-2.2036 -1.3061 1.6585
-0.8751 -1.3221 -0.4444
-1.5347 -1.4136 0.9257
-1.3999 -1.3897 0.7592
-1.6533 -1.3843 0.9027
-0.8839 -1.3443 -0.4204
-0.8643 -1.3048 -0.3971
-1.6855 -1.3866 1.0054
-1.2257 -1.3118 -0.3548
-1.5018 -1.4007 1.0359
-1.3227 -1.3555 0.8903
-1.1437 -1.3437 0.5800
-1.7803 -1.3883 1.0709
-2.1336 -1.4004 0.9296
-2.4383 -1.4150 0.6520
-0.7761 -1.3389 -0.1911
-0.3344 -0.6785 0.1519
-2.0897 -1.3191 0.8212
-0.7663 -1.3018 -0.4707
-1.5039 -1.3468 -0.1370
-1.5543 -1.4114 -0.0641
-1.7936 -1.2498 0.2058
-1.1716 -1.3498 -0.0742
-2.0888 -1.4097 0.5285
-0.9191 -1.3634 0.4651
-0.9828 -1.3485 -0.6091
-1.3229 -1.3681 -0.4516
-1.4450 -1.3444 -0.3036
-0.8660 -1.3546 -0.4231
-0.9152 -1.3217 -0.1424
-1.9323 -1.4090 0.6862
-1.1075 -1.3526 0.1435
-1.1995 -1.3610 -0.4331
-1.1793 -1.3764 -0.5163
-0.9227 -1.3465 -0.2108
-1.0346 -1.2930 -0.5045
-1.0469 -1.3684 -0.4681
-1.3670 -1.2904 0.6068
-1.1750 -1.3448 -0.3709
-0.9854 -1.2977 -0.4329
-2.5033 -1.4779 0.7998
-1.2609 -1.3943 0.0871
-1.0350 -1.3593 0.3455
-1.1561 -1.3219 -0.4215
-1.7889 -1.3549 0.7569
-0.9501 -1.3752 -0.0640
-1.6918 -1.3493 -0.2201
-2.1064 -1.3872 1.1492
-1.5434 -1.4449 -0.6222
-1.1008 -1.3469 -0.6356
-1.1259 -1.3725 -0.6159
-2.0177 -1.1928 -0.2444
-2.1544 -1.2468 -0.1879
-1.0324 -1.3469 -0.4882
-1.5483 -1.3837 0.5494
-0.9173 -1.3754 0.0315
-1.5082 -1.3457 0.3145
-0.9570 -1.3428 -0.0788
-1.4670 -1.3170 0.2070
-1.5240 -1.4101 -0.1097
-1.7409 -1.3943 0.0342
-1.4656 -1.2971 0.1093
-1.4724 -1.4389 -0.0046
-1.4720 -1.3351 0.0714
-1.2419 -1.2789 0.0358
-0.9383 -1.3121 -0.4546
-1.2130 -1.3221 0.3861
-2.5002 -1.4202 1.0426
-0.9552 -1.3888 -0.6420
-1.5252 -1.3836 -0.4440
-1.2694 -1.3210 -0.4199
-1.4711 -1.3110 -0.2466
-1.3476 -1.3372 -0.5956
-1.0335 -1.2455 0.2852
-1.3256 -1.4133 0.4387
-0.8547 -1.1750 0.0742
-1.4213 -1.3123 0.4301
-0.7304 -1.2864 0.0019
-0.9942 -1.3282 0.1242
-0.9853 -1.3308 0.0930
-0.8806 -1.3436 -0.4516
-1.9888 -1.3523 0.6186
-1.5118 -1.4220 -0.2568
-0.9953 -1.3334 0.0496
-1.6731 -1.3394 -0.0230
-1.2462 -1.4201 0.0926
-1.3530 -1.3633 -0.1020
-0.9453 -1.3903 -0.1023
-1.5785 -1.3461 0.1297
-1.1753 -1.3610 -0.1121
-1.4449 -1.3196 0.0953
-1.5311 -1.3912 0.5202
-1.4195 -1.3939 0.0877
-1.2284 -1.3334 0.4497
-0.7218 -1.2631 0.2097
-2.1297 -1.5776 0.8160
-1.3118 -1.2003 -0.1528
-0.9353 -1.3947 -0.3565
-1.1036 -1.3246 -0.7156
-1.0450 -1.4498 0.0728
-0.8655 -1.2284 -0.6779
-1.0935 -1.3108 -0.6583
-1.3518 -1.3403 -0.6333
-0.9647 -1.2988 -0.6154
-1.9388 -1.4084 0.6012
-2.0349 -1.3405 0.5837
-2.1707 -1.3943 0.4489
-0.9622 -1.4238 0.0414
-1.8285 -1.3386 0.1784
-1.2084 -1.2779 -0.0064
-1.5685 -1.3505 -0.3372
-1.7066 -1.3665 -0.3244
-0.9054 -1.2986 -0.1730
-1.1720 -1.3517 -0.3583
-1.6266 -0.8333 -0.2615
-0.8188 -1.2770 -0.3555
-1.2371 -1.2968 0.3725
-1.8227 -1.3316 0.3084
-1.8006 -1.2413 0.2205
-1.6706 -1.3547 0.1734
-1.3435 -1.3605 -0.2578
-0.9041 -1.3562 0.4063
-0.6794 -1.3162 -0.0249
-0.7716 -1.3270 -0.3407
-0.7841 -1.3550 -0.3372
-0.7661 -1.3385 -0.6629
-1.0927 -1.2833 -0.6546
-0.7574 -1.3257 -0.5539
-1.3160 -1.3541 0.1067
-0.9379 -1.2980 0.0233
-0.7376 -1.3034 -0.4855
-1.1745 -1.3479 0.0248
-1.3309 -1.3995 -0.4430
-1.4724 -1.4130 -0.4142
-1.0992 -1.3065 -0.3516
-1.4625 -1.3654 -0.3055
-1.3784 -1.4006 0.2332
-1.7678 -1.2330 0.1065
-0.7492 -1.3830 -0.5056
-1.3545 -1.3385 -0.6601
-1.1056 -1.2944 0.1356
-1.6521 -0.8471 -0.2348
-0.7305 -1.3568 -0.5830
-0.9035 -1.3777 -0.3248
-0.9570 -1.3651 -0.6646
-0.7311 -1.2833 -0.5081
-0.8621 -1.4066 -0.3225
-0.9567 -1.2658 0.0412
-1.2530 -1.3319 0.0025
-1.4295 -1.4176 0.0952
-1.3931 -1.4893 0.2044
-0.9833 -1.3349 -0.4747
-1.1124 -1.3450 -0.5130
-0.9895 -1.2829 -0.5372
-1.0832 -1.3406 -0.5476
-1.2162 -1.3399 -0.2889
-1.3089 -1.3566 -0.2688
-0.9030 -1.3437 -0.6029
-1.0166 -1.3604 -0.6731
-1.0513 -1.3192 -0.7406
-1.5653 -0.7010 -0.2350
-0.7326 -1.3433 -0.7705
-0.7654 -1.3735 -0.7169
-0.8178 -1.2459 -0.6965
-0.9553 -1.3165 -0.0845
-0.8607 -1.2455 -0.4563
-0.8646 -1.3344 -0.3887
-1.1928 -1.3559 -0.4213
-1.1373 -1.3546 -0.3460
-1.2088 -1.3200 -0.4219
-0.8107 -1.2572 -0.3265
-1.0285 -1.3260 -0.1304
-0.8266 -1.2324 -0.1246
-0.9660 -1.3250 0.0094
-0.9402 -1.3558 -0.6069
-0.9879 -1.3207 -0.8319
-1.5551 -1.3162 -0.0880
-1.4066 -1.2724 -0.8970
-1.1625 -1.3266 -0.7141
-1.4735 -1.3955 -0.0913
-1.1347 -1.3374 -0.7049
-1.5440 -1.3204 -1.1761
-0.9159 -1.2988 -0.8452
-1.1504 -1.3079 -0.0716
-1.4849 -1.3228 -1.0758
-1.2383 -1.3617 0.0142
-0.8789 -1.2632 -0.8091
-0.8864 -1.2753 -0.7923
-0.7725 -1.2460 -0.4608
-1.0374 -1.3659 -0.5052
-1.5678 -1.2893 -0.0487
-1.1479 -1.3277 -0.0435
-0.9332 -1.3541 -0.6581
-0.9881 -1.3616 -0.4932
-1.1775 -1.2726 -0.3913
-0.9274 -1.3521 -0.3118
-1.6523 -1.3526 -0.0659
-1.3176 -1.3382 -0.2383
-1.4567 -1.2814 -1.1327
-1.6674 -0.5969 -0.8977
-1.6866 -0.5894 -0.8998
-1.5756 -0.6224 -0.8737
-1.0482 -1.3374 -0.4292
-1.1191 -1.3748 -0.5619
-1.8178 -0.5344 -0.4057
-1.6310 -0.5546 -0.6298
-1.0720 -1.2467 -0.6422
-1.8930 -0.6257 -0.5438
-1.7457 -0.5668 -0.6108
-1.6407 -0.5510 -0.4836
-1.5833 -1.2842 -0.0504
-1.6875 -0.5950 -0.3815
-1.5324 -0.5680 -0.5909
-1.5521 -0.5399 -0.5175
-1.4930 -0.5768 -0.8288
-1.6447 -0.5881 -0.8809
-1.5577 -0.5921 -0.8165
-1.9886 -0.6228 -0.5178
-1.4881 -0.4689 -0.5346
-1.6093 -1.2991 -0.0726
-1.5705 -0.5867 -0.7480
-1.0667 -1.2799 -0.6352
-1.6611 -0.5828 -0.5432
-1.8581 -0.5564 -0.4713
-1.4493 -1.2690 -1.0492
-1.9394 -0.6567 -0.7651
-1.9379 -0.6122 -0.6575
-1.8553 -0.6317 -0.7798
-1.4134 -1.2669 0.0821
-1.7657 -0.5222 -0.6744
-1.1768 -1.2889 -0.3881
-1.6681 -1.3276 -0.2144
-1.2607 -1.3458 -0.1660
-1.6194 -0.5920 -0.7288
-0.9876 -1.1257 -0.3848
-2.1357 -0.5680 -0.4525
-1.8176 -0.5786 -0.8337
-1.8548 -0.5838 -0.6683
-1.6030 -0.5836 -0.6209
-1.7726 -0.5952 -0.5845
-1.5583 -0.5735 -0.7401
-1.5083 -0.5670 -0.6052
-1.3561 -0.6804 -0.7753
-1.3116 -0.5409 -0.8149
-1.5891 -0.6008 -0.8700
-1.0943 -1.2785 -0.6517
-1.4493 -1.3103 -1.1274
-0.9314 -1.0407 -0.3778
-1.5194 -1.2415 -0.0573
-1.7616 -0.5609 -0.5579
-1.0307 -1.1949 -0.2339
-1.4797 -0.5930 -0.4560
-1.5513 -0.6060 -0.6742
-1.4784 -1.2937 -0.0880
-1.0234 -1.2633 -0.4978
-1.5320 -0.5817 -0.3584
-1.7299 -0.5221 -0.4301
-1.7135 -0.5802 -0.4603
-1.4542 -0.4350 -0.2963
-1.4096 -1.1572 -1.0262
-1.3430 -0.6782 -0.7864
-1.6390 -1.3011 -0.3110
-1.7713 -0.5954 -0.5351
-1.7537 -0.6828 -0.5204
-1.6691 -0.5909 -0.5437
-1.6715 -0.6083 -0.6126
-1.6150 -0.5968 -0.6250
-1.4319 -0.5301 -0.7175
-1.9107 -0.6196 -0.6277
-1.7833 -0.5931 -0.6186
-1.7205 -0.6163 -0.5906
-1.0827 -0.3094 -0.2469
-1.5866 -0.5846 -0.6819
-1.4689 -1.3230 -1.0760
-1.8475 -0.5840 -0.5727
-2.0331 -0.6080 -0.6801
-1.8203 -0.5518 -0.6863
-1.8309 -0.6452 -0.9731
-1.5808 -0.5783 -0.6778
-1.8871 -0.5765 -0.4831
-1.5632 -0.5795 -0.7410
-1.5157 -0.5473 -0.7834
-1.6430 -0.5911 -0.8800
-1.8635 -0.5629 -0.5437
-1.6367 -1.4085 -0.0192
-1.5058 -1.3349 -0.1198
-1.5077 -1.3738 -0.0720
-1.8350 -0.5896 -0.7340
-1.6779 -0.5897 -0.3590
-1.2470 -1.2956 -0.1858
-1.6041 -0.6063 -0.4864
-1.7441 -0.5860 -0.6673
-2.1319 -0.5568 -0.3845
-2.1099 -0.5544 -0.4440
-1.7351 -0.5790 -0.4011
-1.9282 -0.5717 -0.4642
-1.9677 -0.5558 -0.4897
-1.8341 -0.5911 -0.5375
-1.9725 -0.5866 -0.6287
-1.9525 -0.6192 -0.9562
-1.5118 -0.5336 -0.7749
-1.7170 -0.5976 -0.9110
-2.1128 -0.5323 -0.3220
-1.8518 -0.6046 -0.3667
-2.1136 -0.6105 -0.7276
-1.6554 -0.5948 -0.6088
-1.6016 -0.5966 -0.7956
-1.4572 -1.3066 -1.1051
-1.9655 -0.5716 -0.2089
-2.1268 -0.5704 -0.2339
-2.0040 -0.5867 -0.2464
-2.0799 -0.5807 -0.3271
-2.0717 -0.5849 -0.3876
-2.0344 -0.5899 -0.4113
-1.8656 -0.5755 -0.3761
-1.8919 -0.5754 -0.4859
-1.9259 -0.5858 -0.5286
-2.0009 -0.5932 -0.5645
-1.9019 -0.5805 -0.5883
-1.8966 -0.5856 -0.6505
-1.6790 -0.5775 -0.5798
-1.7883 -0.5980 -0.6220
-1.6835 -0.6001 -0.6461
-1.8017 -0.6003 -0.7651
-1.7037 -0.5770 -0.2359
-1.7871 -0.5761 -0.2963
-1.7368 -0.5661 -0.3185
-1.6822 -0.6090 -0.4461
-1.7755 -0.5639 -0.4902
-1.6109 -0.5952 -0.6248
-1.6429 -0.6241 -0.7462
-1.7638 -0.5516 -0.1374
-1.6410 -0.5448 -0.1680
-1.8995 -0.5664 -0.1936
-1.6431 -0.6424 -0.3637
-1.7061 -0.5919 -0.1239
-1.3505 -0.3412 -0.6796
-1.5809 -0.6022 -0.5522
-2.0440 -0.6226 -0.9739
-1.8085 -0.6066 -0.8752
-1.3562 -0.1899 -0.3441
-1.0765 0.1231 -0.3320

