0.1536 -0.5283 -0.0632
0.2908 -0.5290 -0.0152
0.2656 -0.5168 -0.0186
0.1479 -0.5333 -0.0544
0.2186 -0.5273 0.1895
0.2168 -0.5256 0.1427
0.3897 -0.5279 0.0406
0.0911 -0.5369 0.2215
0.2711 -0.5383 -0.0093
0.6220 -0.5325 -0.0793
0.4218 -0.5191 0.0459
0.4385 -0.5275 -0.1032
0.6322 -0.5447 -0.0588
0.2843 -0.5322 -0.1161
0.2753 -0.5281 -0.0920
0.6810 -0.5551 -0.0028
0.4587 -0.5418 -0.0030
0.2777 -0.5324 -0.0491
0.4864 -0.5349 0.2895
0.3963 -0.5330 0.1313
0.3379 -0.5416 0.2728
0.2464 -0.5394 0.1105
0.4012 -0.5346 0.2325
0.4377 -0.5321 0.2460
0.7122 -0.5358 -0.1474
0.3180 -0.5356 -0.0949
0.6259 -0.5310 0.0236
0.5665 -0.5252 0.0572
0.5533 -0.5040 0.1484
0.5634 -0.5345 0.1755
0.5888 -0.5472 0.1858
0.2123 -0.5273 0.0844
0.4038 -0.5313 0.2646
0.2600 -0.5227 0.2029
0.4410 -0.5249 -0.0808
0.5818 -0.5392 0.2133
0.6335 -0.5381 0.0416
0.2969 -0.5352 -0.1129
0.2860 -0.5327 0.0953
0.5233 -0.5302 0.3953
0.4609 -0.5348 -0.0985
0.4562 -0.5363 -0.0720
0.6433 -0.5443 -0.0255
0.5051 -0.5269 0.4108
0.5174 -0.5337 0.3953
0.4298 -0.5231 0.3460
0.4868 -0.5364 0.0120
0.4645 -0.5343 0.0299
0.4359 -0.5307 0.0248
0.5386 -0.5303 0.0517
0.2607 -0.5327 0.0023
0.3164 -0.5244 0.0579
0.5727 -0.5249 0.3073
0.4876 -0.5233 0.1117
0.2554 -0.5311 0.0651
0.4372 -0.5224 0.2535
0.4066 -0.5367 0.1650
0.2265 -0.5341 0.1213
0.6078 -0.5293 0.2334
0.1699 -0.5338 0.1672
0.2292 -0.5299 0.1580
0.2229 -0.5407 -0.0931
0.2418 -0.5201 -0.1036
0.4889 -0.5176 0.0410
0.5711 -0.5355 0.2173
0.4212 -0.5261 0.1338
0.2337 -0.5292 0.1439
0.6567 -0.5342 0.0532
0.6486 -0.5747 -0.0757
0.4321 -0.5376 0.1112
0.3428 -0.5354 -0.0683
0.3212 -0.5378 -0.0337
0.5752 -0.5384 0.2802
0.6420 -0.5434 0.0041
0.4321 -0.5307 -0.0167
0.1625 -0.5375 -0.0323
0.1491 -0.5325 0.0200
0.5894 -0.5313 -0.0393
0.2841 -0.5372 0.0541
0.2542 -0.5231 -0.0634
0.3750 -0.5252 -0.1736
0.1814 -0.5168 0.0558
0.2086 -0.5268 0.1314
0.3835 -0.5197 0.1835
0.6243 -0.5394 -0.1471
0.2753 -0.5351 0.1682
0.3151 -0.5353 -0.1698
0.2966 -0.5244 0.3081
0.2020 -0.5263 0.1746
0.5365 -0.5326 0.2882
0.3799 -0.5307 0.2592
0.1883 -0.5270 0.1986
0.1666 -0.5335 0.1953
0.1555 -0.5268 0.1890
0.4688 -0.5211 0.3381
0.4973 -0.5312 0.3633
0.1871 -0.5442 -0.0418
0.2367 -0.5324 -0.1494
0.4098 -0.5231 0.1275
0.1641 -0.5172 0.1445
0.0879 -0.5351 0.1663
0.6864 -0.5422 -0.1589
0.2753 -0.5310 0.1109
0.4489 -0.5280 -0.0280
0.3478 -0.5402 -0.1422
0.2574 -0.5344 0.0664
0.6484 -0.5317 -0.1370
0.3938 -0.5247 0.2028
0.4595 -0.5432 -0.1270
0.3142 -0.5356 -0.1373
0.4153 -0.5362 0.1884
0.6471 -0.5492 -0.0549
0.3516 -0.5279 0.3492
0.5538 -0.5308 0.4390
0.1272 -0.5286 0.2427
0.5048 -0.5210 0.4091
0.5371 -0.5513 0.3678
0.3230 -0.5227 -0.0039
0.2260 -0.5250 0.1932
0.6376 -0.5350 0.0745
0.6121 -0.5399 0.2951
0.2283 -0.5254 0.1578
0.5978 -0.5346 0.2510
0.5792 -0.5386 0.2410
0.5724 -0.5438 0.2366
0.3070 -0.5370 0.0524
0.3993 -0.5347 0.1558
0.1867 -0.5356 0.0670
0.6311 -0.5364 -0.1126
0.2305 -0.5229 0.0256
0.3369 -0.5342 0.3324
0.3768 -0.5156 0.0577
0.2242 -0.5273 -0.0299
0.2191 -0.5232 0.0501
0.2919 -0.5236 0.0194
0.2628 -0.5312 0.1991
0.3357 -0.5311 -0.1251
0.3394 -0.5309 0.3501
0.2147 -0.5334 0.0740
0.3432 -0.5251 0.3485
0.2196 -0.5318 0.1652
0.2457 -0.5294 0.0900
0.3615 -0.5322 0.3699
0.3493 -0.5336 0.3706
0.5468 -0.5262 0.4656
0.2900 -0.5284 0.1627
0.2404 -0.5349 0.1263
0.4375 -0.5181 0.1946
0.3573 -0.5297 0.1278
0.4024 -0.5203 0.1144
0.2715 -0.5255 0.0322
0.6386 -0.5245 0.0834
0.6580 -0.5375 0.0183
0.3193 -0.5239 -0.0435
0.3296 -0.5216 -0.1985
0.6285 -0.5287 0.0478
0.2313 -0.5331 -0.1929
0.6638 -0.5479 0.0716
0.4202 -0.5280 0.0186
0.4571 -0.5535 0.4394
0.4192 -0.5244 0.4023
0.1837 -0.5314 0.2759
0.2215 -0.5371 -0.0236
0.5522 -0.5408 0.0899
0.2457 -0.5276 0.0046
0.2176 -0.5284 0.2830
0.2916 -0.5334 -0.0878
0.4780 -0.5212 0.4034
0.2870 -0.5256 -0.1532
0.1890 -0.5313 0.2336
0.2792 -0.5463 -0.1554
0.4077 -0.5289 0.1688
0.2565 -0.5315 0.1444
0.6668 -0.5374 -0.0724
0.5595 -0.5177 0.2762
0.4488 -0.3941 0.2199
0.2701 -0.5187 0.2166
0.4917 -0.5130 0.2710
0.3928 -0.5165 0.2352
0.4997 -0.5163 0.3107
0.5256 -0.5122 0.3147
0.2333 -0.5542 -0.2369
0.2449 -0.5203 -0.1957
0.2673 -0.5314 -0.1615
0.6354 -0.5413 -0.0165
0.4700 -0.5061 0.0707
0.1886 -0.5336 0.0360
0.4704 -0.5389 0.4174
0.3491 -0.5208 0.3523
0.1865 -0.5393 0.2727
0.5127 -0.5330 0.4538
0.2358 -0.5332 0.2247
0.2831 -0.5378 -0.0733
0.3258 -0.5363 -0.2036
0.3383 -0.5376 -0.1658
0.2891 -0.5341 -0.0341
0.3402 -0.5306 -0.1792
0.5929 -0.5383 -0.1068
0.2928 -0.5376 -0.1648
0.2769 -0.5301 -0.1261
0.3556 -0.5292 0.3829
0.6283 -0.5438 -0.0374
0.2329 -0.5285 0.1516
0.3627 -0.5337 0.1278
0.1508 -0.5377 -0.0565
0.4774 -0.5242 -0.0271
0.2953 -0.5301 -0.0773
0.1511 -0.5379 0.2553
0.3302 -0.5200 0.3598
0.5282 -0.5181 0.4719
0.1167 -0.5311 0.2169
0.5074 -0.5385 0.4354
0.4838 -0.5252 0.0206
0.6072 -0.5290 0.0682
0.4504 -0.5328 0.0168
0.3550 -0.5209 0.3144
0.5031 -0.5351 0.3997
0.1929 -0.5288 0.2152
0.3703 -0.5266 0.0080
0.4669 -0.5232 0.3560
0.3057 -0.9379 -0.0241
0.4060 -0.5314 0.0744
0.6283 -0.5348 0.1629
0.5297 -0.5041 0.1542
0.2755 -0.5338 0.0588
0.2636 -0.5330 0.1839
0.2413 -0.5353 0.0741
0.2261 -0.5262 0.0802
0.2174 -0.5305 0.1094
0.1809 -0.5310 0.1157
0.2445 -0.5246 -0.1680
0.5484 -0.5381 -0.0622
0.1245 -0.5118 0.1818
0.4846 -0.5279 0.3759
0.4541 -0.5547 0.0402
0.2158 -0.5439 0.0250
0.2203 -0.5395 -0.0999
0.5757 -0.5322 0.0153
0.2015 -0.5309 0.1031
0.5805 -0.5555 0.0451
0.2178 -0.5356 -0.0458
0.3782 -0.5361 0.2160
0.4513 -0.5365 -0.1395
0.2468 -0.5319 -0.1421
0.4895 -0.5326 0.0136
0.1428 -0.5302 -0.0517
0.2227 -0.5357 -0.0053
0.3460 -0.5380 0.0814
0.2276 -0.5418 0.0657
0.4396 -0.5313 0.1881
0.1625 -0.5295 0.1782
0.2843 -0.5414 0.3179
0.2672 -0.5354 -0.0100
0.4183 -0.5454 0.1213
0.3137 -0.5273 -0.1671
0.2061 -0.5230 -0.2153
0.1831 -0.5296 0.0588
0.4124 -0.5288 -0.1538
0.2750 -0.5177 -0.1697
0.2346 -0.5207 -0.1758
0.2986 -0.5284 -0.1607
0.4516 -0.5362 -0.1054
0.2946 -0.5303 -0.0935
0.3625 -0.5349 0.1276
0.0910 -0.5288 0.1731
0.3265 -0.5406 -0.0545
0.1508 -0.5233 -0.0608
0.4943 -0.5366 0.0119
0.6643 -0.5377 0.0833
0.5956 -0.5378 0.0803
0.5105 -0.5365 0.5153
0.2286 -0.5356 -0.0316
0.6458 -0.5396 0.1359
0.5053 -0.5370 0.0836
0.5495 -0.5304 0.5401
0.3137 -0.5280 0.3644
0.2720 -0.5468 0.0197
0.5949 -0.5459 0.1649
0.2108 -0.5324 0.0134
0.3908 -0.5229 0.0948
0.6174 -0.5394 0.2085
0.1561 -0.5306 0.2396
0.3515 -0.5268 0.1004
0.2433 -0.5489 0.0526
0.2028 -0.5315 0.2619
0.4804 -0.5318 0.1707
0.2199 -0.5313 0.0611
0.2293 -0.5317 0.0710
0.0921 -0.5280 0.1762
0.3515 -0.5404 0.1428
0.3805 -0.5441 0.1658
0.2156 -0.5241 0.0834
0.1399 -0.5403 0.0496
0.4022 -0.5320 0.3509
0.2414 -0.5296 0.1521
0.2095 -0.5404 0.2223
0.4247 -0.5368 0.2784
0.3631 -0.5196 0.2599
0.1631 -0.5380 -0.0309
0.3451 -0.5322 0.2490
0.4776 -0.5193 0.4833
0.2081 -0.5352 0.0688
0.1653 -0.5314 0.1107
0.2637 -0.5261 -0.2090
0.4536 -0.5528 -0.1585
0.3874 -0.5216 -0.1543
0.6527 -0.5444 -0.0587
0.4038 -0.5266 -0.1052
0.6045 -0.5573 -0.0596
0.3978 -0.5355 -0.0443
0.2339 -0.5330 0.0928
0.1730 -0.5324 0.2522
0.2380 -0.5359 -0.1512
0.1785 -0.5305 0.0864
0.4082 -0.5948 0.2920
0.2828 -0.5372 -0.0267
0.2847 -0.5373 0.0829
0.2727 -0.5338 0.0170
0.2360 -0.5324 0.1533
0.3068 -0.5405 -0.1273
0.1942 -0.5264 0.2928
0.2162 -0.5225 0.2966
0.2927 -0.5600 -0.0835
0.0931 -0.5365 0.1663
0.2851 -0.5381 0.1705
0.6752 -0.5511 0.0556
0.3403 -0.5454 -0.1596
0.4065 -0.5439 0.0164
0.3758 -0.5377 0.4258
0.0994 -0.5107 0.2123
0.4095 -0.5343 0.0755
0.3435 -0.5051 0.3834
0.4548 -0.5316 0.0974
0.1358 -0.5009 0.2325
0.3688 -0.5475 0.4159
0.4319 -0.5391 0.1106
0.2908 -0.5316 0.3352
0.5517 -0.5163 0.2224
0.3335 -0.5122 0.3328
0.6449 -0.5407 -0.0211
0.2541 -0.5335 0.0992
0.3935 -0.5258 0.1841
0.1916 -0.5298 0.0788
0.5230 -0.5399 0.4536
0.5105 -0.5685 0.4422
0.5832 -0.5196 0.3152
0.2579 -0.5120 0.1387
0.3251 -0.2636 0.1581
0.3205 -0.5348 0.2935
0.5123 -0.5121 0.4072
0.3049 -0.5169 0.2636
0.4447 -0.5409 0.3584
0.3870 -0.5397 0.2731
0.4091 -0.5625 0.0421
0.3520 -0.5360 0.1182
0.2902 -0.5363 -0.1153
0.4184 -0.5344 -0.0561
0.4111 -0.5363 0.0206
0.5767 -0.5541 0.1332
0.5678 -0.5292 0.2150
0.3975 -0.5464 0.1535
0.4556 -0.5558 0.1973
0.2094 -0.5554 0.0766
0.2255 -0.5239 0.1199
0.2046 -0.5423 0.2618
0.5193 -0.5414 -0.0979
0.2328 -0.5327 0.1600
0.2363 -0.5229 0.1417
0.4884 -0.5422 -0.1271
0.4492 -0.5321 -0.0273
0.5133 -0.5424 -0.1220
0.4538 -0.5245 -0.1100
0.4566 -0.5409 -0.0824
0.2798 -0.5359 -0.1269
0.4759 -0.5394 -0.0666
0.4594 -0.5319 -0.0695
0.3216 -0.5433 -0.0954
0.2221 -0.5197 0.3190
0.2477 -0.5286 0.0905
0.3518 -0.5387 -0.0747
0.1673 -0.5110 0.2895
0.1756 -0.5275 0.3006
0.3385 -0.5249 0.3946
0.3274 -0.5165 0.3775
0.2019 -0.5283 0.2999
0.5084 -0.5150 0.4583
0.2218 -0.5351 0.2865
0.2610 -0.5299 0.2897
0.2260 -0.5232 0.2063
0.4124 -0.5387 0.1376
0.2592 -0.5285 0.0484
0.5175 -0.5270 0.1172
0.5784 -0.5322 0.1188
0.2420 -0.5340 -0.1211
0.5027 -0.5222 0.2282
0.0904 -0.5146 0.2424
0.3033 -0.5140 0.3683
0.4447 -0.5210 0.4594
0.2217 -0.5451 -0.1003
0.2447 -0.5139 -0.0272
0.3969 -0.5331 0.3332
0.1630 -0.5228 0.1780
0.1574 -0.5381 0.0971
0.2106 -0.5474 -0.0503
0.3984 -0.5344 0.0388
0.5905 -0.5345 0.1755
0.4321 -0.5339 0.2459
0.3371 -0.5478 0.3237
0.2380 -0.5301 -0.1492
0.4330 -0.5188 0.0338
0.2963 -0.5448 -0.1586
0.1945 -0.5381 0.2989
0.2643 -0.5362 0.2220
0.2301 -0.5214 0.0705
0.1489 -0.5301 -0.0538
0.2008 -0.5385 -0.1911
0.4665 -0.5429 0.0082
0.2765 -0.5306 -0.0286
0.5315 -0.5400 0.4050
0.2193 -0.5313 0.1458
0.2733 -0.5279 -0.0906
0.1825 -0.0150 0.0013
0.4988 -0.5163 0.0839
0.1868 -0.5370 0.0678
0.4081 -0.5355 -0.1335
0.1509 -0.5421 0.2584
0.4272 -0.5307 0.0337
0.4934 -0.5261 0.0227
0.4261 -0.5321 -0.0893
0.2252 -0.5178 0.1900
0.1817 -0.5388 -0.0551
0.5192 -0.5135 0.1736
0.0970 -0.5191 0.1744
0.2812 -0.5392 0.1127
0.2224 -0.5294 0.1652
0.2582 -0.5372 0.0668
0.2850 -0.5321 0.0823
0.1576 -0.5361 -0.0634
0.2203 -0.5254 0.1089
0.1822 -0.5319 -0.0103
0.2077 -0.4931 0.2047
0.3928 -0.5313 0.0256
0.3518 -0.5301 0.1406
0.3352 -0.5335 -0.0047
0.1635 -0.5233 0.2767
0.2230 -0.5289 0.0506
0.2220 -0.5518 -0.0462
0.2806 -0.5370 -0.0499
0.3880 -0.5277 0.0783
0.2364 -0.5279 0.0941
0.1830 -0.0422 0.0154
0.3624 -0.5484 0.2887
0.2991 -0.5239 0.2367
0.4219 -0.5459 0.1196
0.3052 -0.5411 0.3189
0.3361 -0.5294 0.2713
0.3401 -0.5408 -0.0290
0.2988 -0.5362 -0.0937
0.1555 -0.5371 -0.0616
0.2176 -0.5296 0.0846
0.2842 -0.5540 -0.1575
0.2733 -0.0824 -0.0026
0.2677 -0.1389 -0.0090
0.3641 -0.5651 0.1263
0.7044 -0.5437 -0.1017
0.5823 -0.5305 0.1832
0.5800 -0.5639 0.3382
0.6396 -0.5344 0.0116
0.6533 -0.5504 -0.0767
0.6461 -0.5410 -0.0523
0.4544 -0.5330 -0.0264
0.6757 -0.5466 0.0184
0.2131 -0.5358 0.2893
0.3375 -0.5302 0.1434
0.5917 -0.5507 0.0163
0.2939 -0.5387 0.3398
0.3841 -0.5202 0.2665
0.3966 -0.5364 0.0392
0.4025 -0.4880 -0.0507
0.5042 -0.5333 0.0441
0.2883 -0.5367 0.0558
0.3222 -0.5171 0.0575
0.3598 -0.5231 0.0102
0.3971 -0.5343 0.0026
0.2552 -0.5316 0.0793
0.1972 -0.5355 -0.1583
0.2482 -0.5368 0.1448
0.1271 -0.5233 0.1868
0.2857 -0.5328 -0.0127
0.2700 -0.2986 0.1804
0.2128 -0.0721 0.0024
0.3504 -0.2470 0.0659
0.5675 -0.5304 0.2002
0.5836 -0.5324 0.2403
0.3588 -0.1926 0.1155
0.5340 -0.5153 0.2852
0.4878 -0.5308 0.2905
0.1784 -0.5254 0.3010
0.1862 -0.5214 0.2457
0.1292 -0.5333 0.2665
0.3659 -0.5322 0.1288
0.4154 -0.5362 0.1375
0.1190 -0.5258 0.2828
0.4449 -0.5406 0.0259
0.1894 -0.5332 -0.0399
0.1672 -0.5442 -0.0314
0.1463 -0.5328 -0.0495
0.1540 -0.5359 0.0978
0.1423 -0.3209 0.1491
0.2471 -0.1366 0.0435
0.3908 -0.5269 0.3480
0.1578 -0.5203 0.3093
0.5838 -0.5253 0.1608
0.3478 -0.5164 0.3638
0.1272 -0.5294 0.2968
0.3655 -0.5059 0.3141
0.3316 -0.5269 0.2552
0.2613 -0.5362 0.0676
0.1542 -0.5367 -0.0561
0.4846 -0.5404 -0.1006
0.4029 -0.5256 0.0177
0.2731 -0.5290 -0.0087
0.2633 -0.5254 0.0030
0.3767 -0.5374 -0.1316
0.2797 -0.5374 0.0595
0.2199 -0.5370 0.0856
0.2571 -0.5233 -0.1323
0.3937 -0.5417 -0.0058
0.2291 -0.5287 0.1217
0.3577 -0.4987 0.1690
0.2471 -0.0838 0.0927
0.3007 -0.2161 0.1485
0.5081 -0.5288 0.4349
0.6034 -0.5441 -0.1069
0.3398 -0.5178 0.3927
0.3532 -0.5266 0.4018
0.3324 -0.5176 0.3820
0.1859 -0.4935 0.3193
0.1544 -0.5246 0.2507
0.0827 -0.5169 0.2724
0.1517 -0.5334 0.0199
0.3229 -0.5209 -0.0883
0.6113 -0.5385 0.2566
0.3966 -0.5238 0.3304
0.5281 -0.5705 0.2987
0.2891 -0.5322 -0.0793
0.2509 -0.5273 0.0913
0.3123 -0.5518 -0.0975
0.2926 -0.5153 0.1613
0.2346 -0.5405 0.0816
0.2336 -0.5373 0.0729
0.5767 -0.5293 0.0586
0.4118 -0.5368 -0.1331
0.1586 -0.5216 0.2371
0.1746 -0.5219 0.1649
0.5705 -0.5352 0.0450
0.5860 -0.5249 0.0609
0.1997 -0.4874 0.2167
0.1815 -0.5295 0.0869
0.3961 -0.2151 0.0489
0.5638 -0.5284 0.1765
0.6454 -0.5338 -0.0188
0.6189 -0.5457 -0.0550
0.1483 -0.5360 0.2442
0.3084 -0.5335 0.2976
0.3490 -0.5312 0.3034
0.3023 -0.5334 -0.1107
0.1878 -0.5232 0.0670
0.5848 -0.5367 0.3729
0.4578 -0.5298 0.1386
0.4049 -0.5283 0.1999
0.2363 -0.5324 0.1603
0.4854 -0.5284 -0.1222
0.2625 -0.5301 0.1439
0.1652 -0.5238 0.1806
0.2492 -0.2213 0.0643
0.2111 -0.0461 0.0818
0.6465 -0.5397 0.0033
0.4394 -0.5130 0.3142
0.4553 -0.5318 0.2562
0.4383 -0.5132 0.0402
0.3933 -0.5273 -0.0488
0.1903 -0.5371 -0.0402
0.2158 -0.5188 0.0250
0.2374 -0.1102 0.0465
0.4700 -0.5300 -0.0467
0.4354 -0.5347 -0.0166
0.4842 -0.5294 0.1725
0.4106 -0.5427 0.1675
0.3588 -0.5465 0.2138
0.2248 -0.5512 -0.0949
0.4756 -0.5473 -0.0348
0.2524 -0.1252 0.0867
0.2204 -0.0221 0.0513
0.2397 -0.1009 0.0731
0.6039 -0.5007 -0.0306
0.3256 -0.1333 0.0547

