0.3588 -0.7393 0.3287
0.0545 -0.6149 0.0385
-0.0207 -0.6002 0.2117
-0.2064 -0.5766 0.2605
0.3726 -0.7226 0.3666
0.3409 -0.6844 0.3682
0.0690 -0.6243 0.1111
-0.0576 -0.5691 0.3072
0.3493 -0.7838 0.3745
-0.1302 -0.5933 0.1452
0.0253 -0.6120 0.0592
0.0724 -0.6476 0.2964
0.4215 -0.7678 0.3695
-0.0163 -0.0499 -0.0117
0.0701 -0.1316 0.0997
0.1018 -0.7975 0.5980
-0.2309 -0.5172 0.1793
0.5969 -1.0405 0.4432
0.9535 -1.2552 0.3662
0.2182 -0.4491 0.4078
0.8184 -1.1043 0.4112
0.2484 -0.5539 0.4065
-0.0566 -0.7120 -0.0225
0.1114 -0.1681 0.1150
0.3846 -0.7932 0.3546
0.1940 -0.3673 0.3926
-0.0148 -0.7009 0.4060
0.0672 -0.8727 0.6795
0.1543 -0.3998 0.5181
0.1817 -0.4279 0.5076
0.0533 -0.5164 0.5473
0.0761 -0.5211 0.5385
0.0922 -0.4953 0.5365
0.0924 -0.5197 0.5404
0.0720 -0.2874 0.3281
0.0931 -0.5590 0.5417
0.0920 -0.5692 0.5343
0.0314 -0.2037 0.2089
0.2283 -0.3721 0.2810
0.3088 -0.4147 0.3540
0.3069 -0.4714 0.3272
0.3270 -0.4668 0.3144
0.1677 -0.5120 0.4723
0.1804 -0.4515 0.4946
0.1939 -0.3307 0.2429
0.1813 -0.5232 0.4653
-0.2450 -0.6567 0.2742
0.0454 -0.1724 0.1672
0.0938 -0.7965 0.6339
0.3180 -0.9440 1.1713
0.1063 -0.7430 0.6214
0.0672 -0.8189 0.6309
0.3336 -0.4997 0.2418
0.1045 -0.3514 0.5772
0.1026 -0.3789 0.5822
0.0739 -0.4876 0.5539
0.3577 -0.3760 0.3609
0.3234 -0.3601 0.3600
0.3348 -0.4230 0.3802
0.0475 -0.4764 0.5492
0.2790 -0.3887 0.4671
0.0631 -0.4897 0.5451
0.3260 -0.4128 0.3498
0.2356 -0.3949 0.5201
0.2292 -0.4082 0.5070
0.1745 -0.5215 0.7240
0.3356 -0.3590 0.3562
0.3287 -0.4739 0.3086
0.3289 -0.3545 0.3314
0.1569 -0.7783 0.8306
0.0845 -0.4470 0.5517
0.3217 -0.4486 0.3242
0.0641 -0.4067 0.5743
0.0649 -0.3767 0.5769
0.0538 -0.3755 0.5815
0.0805 -0.3676 0.5764
0.0891 -0.3632 0.5840
0.0426 -0.4044 0.5709
0.0828 -0.3781 0.5721
0.0897 -0.3640 0.5682
0.0777 -0.3953 0.5637
0.0658 -0.4215 0.5537
0.3400 -0.3574 0.3289
-0.0237 -0.6768 -0.0305
0.3265 -0.4259 0.3162
0.3267 -0.4466 0.3148
0.0379 -0.4928 0.5425
0.3301 -0.4702 0.3158
0.3259 -0.3903 0.3328
0.3212 -0.4075 0.3275
0.3239 -0.4030 0.3354
0.3239 -0.4450 0.3319
0.3215 -0.3847 0.3499
0.1201 -0.3837 0.5595
0.0412 -0.1674 0.3020
0.1082 -0.4358 0.5397
0.0306 -0.5806 0.5581
-0.1031 -1.7710 -0.1106
0.0850 -0.4027 0.4700
0.0671 -0.3523 0.3923
0.2939 -0.4189 0.3858
0.2855 -0.4490 0.4056
0.1884 -0.4829 0.4624
-0.2882 -1.1874 0.0958
0.2119 -0.4238 0.4576
0.2035 -0.4968 0.4560
0.2338 -0.4264 0.4600
-0.2093 -1.3094 0.0247
0.2129 -0.5221 0.4416
0.2311 -0.4623 0.4431
0.2306 -0.4638 0.4547
0.3104 -0.3894 0.3678
0.1840 -0.4440 0.4833
0.2324 -0.4427 0.4450
0.1964 -0.4544 0.4741
0.2382 -0.4838 0.4243
0.3101 -0.4717 0.3395
0.2531 -0.4427 0.4438
0.2587 -0.4437 0.4243
0.2281 -0.4175 0.4635
0.2219 -0.4711 0.4421
0.0691 -0.6939 0.6051
0.2450 -0.4538 0.4347
0.2955 -0.4158 0.3735
0.4085 -0.8302 0.3625
0.0312 -0.0440 0.0055
0.0739 -0.4478 0.5288
0.4662 -0.6646 0.4005
0.0710 -0.3693 0.5815
0.4604 -0.7097 0.4193
0.0356 -0.4597 0.5544
0.0938 -0.3851 0.5604
0.0627 -0.4656 0.5408
-0.3676 -1.1279 0.1887
0.1246 -0.8084 0.6722
0.1269 -0.4581 0.5071
-0.3173 -1.2646 0.1100
0.1273 -0.4598 0.4975
-0.2694 -1.2410 0.0842
0.1598 -0.8266 0.5773
0.1965 -0.4519 0.4622
0.2195 -0.4294 0.4537
0.1951 -0.4242 0.4492
0.4755 -0.7459 0.4403
0.2064 -0.4266 0.4888
0.1789 -0.4972 0.4638
0.0573 -0.7361 0.6535
0.2476 -0.4085 0.4149
-0.0103 -0.6647 0.3791
0.1480 -0.7486 0.6361
-0.4124 -1.2102 0.0726
0.4096 -0.6800 0.3411
0.2618 -0.6581 0.1785
0.0478 -0.4621 0.5575
-0.2859 -1.1539 0.1025
0.5374 -1.2684 0.6433
-0.0347 -0.6758 0.5534
0.9018 -2.0339 0.9554
-0.2031 -1.2679 0.0337
0.1922 -0.8264 0.6055
0.0011 -0.5944 0.5900
0.0383 -0.4517 0.5655
-0.2240 -1.2920 1.1853
-0.5175 -1.3289 0.2678
0.4377 -1.3385 0.7952
0.0430 -1.3286 1.1447
-0.2927 -0.6856 0.2051
0.0650 -0.3442 0.5896
-0.5494 -1.2925 0.3588
-0.5557 -1.2808 0.3265
-0.0848 -1.3097 1.3124
0.0407 -1.3830 1.1059
-0.1530 -1.3783 1.2739
-0.0991 -1.3713 1.4507
0.2785 -1.3961 1.7127
0.3536 -1.3826 2.0179
0.2116 -1.3399 1.6416
-0.2178 -1.3354 1.1675
-0.1655 -1.3695 2.0447
-0.5099 -1.3880 1.0060
-0.2597 -1.2472 1.9063
-0.4073 -1.2812 0.5675
0.2404 -1.3924 2.2535
0.0978 -0.6078 0.5354
-0.4352 -1.3081 0.9883
-0.1740 -1.2739 1.8768
-0.2499 -1.2890 1.4386
-0.4165 -1.2885 0.7379
-0.3823 -1.3589 0.8706
-0.3254 -1.2706 0.8659
0.6191 -1.3061 1.8335
-0.0321 -1.4165 1.6911
-0.2628 -1.3730 0.6346
-0.0898 -1.3712 1.2615
-0.0126 -1.3414 2.2465
0.3446 -1.2922 1.2527
-0.5932 -1.3605 0.4879
0.1447 -0.7519 0.5955
0.4514 -1.3175 1.5022
0.2182 -1.2871 1.5078
-0.2792 -1.2880 0.8629
-0.0377 -1.2489 1.9710
-0.3552 -1.3551 0.8380
-0.3474 -1.2528 1.0210
-0.3985 -1.4304 0.9799
-0.5106 -1.2974 0.3657
-0.0712 -1.2617 0.6303
-0.1656 -1.4311 2.0922
0.1291 -1.3280 0.9719
-0.5810 -1.2756 0.3070
-0.5911 -1.2728 0.3186
0.3671 -1.3442 1.2375
0.6637 -1.3745 1.9590
-0.3719 -1.2017 1.6697
-0.3792 -1.3219 0.7716
-0.4238 -1.3506 1.3859
-0.4554 -1.3095 1.0220
-0.0736 -1.4535 1.3379
-0.4427 -1.3307 1.0773
-0.0585 -1.2600 1.5136
0.5226 -1.3972 2.1444
-0.3488 -1.3041 0.8165
-0.5105 -1.3487 1.2783
0.1190 -1.4504 1.1930
-0.4814 -1.3870 1.4166
-0.3435 -1.3345 1.3968
-0.4006 -1.2327 0.9787
-0.4690 -1.2854 0.9463
0.0957 -1.3973 2.3999
-0.0575 -1.4348 2.3357
0.0121 -1.3302 1.6416
-0.2958 -1.0175 0.5082
0.3489 -1.3794 1.6757
0.4254 -1.3194 1.3970
0.3232 -1.4046 1.4416
0.0750 -1.3491 1.0948
0.0181 -1.2810 0.8957
0.1089 -1.3149 1.4264
-0.1407 -1.4006 0.9651
-0.4888 -1.3050 0.4871
-0.5640 -1.3346 0.5909
-0.5982 -1.2683 0.6611
-0.6069 -1.3569 0.6638
-0.6833 -1.3862 0.6354
-0.5307 -1.2219 1.6350
-0.6161 -1.3034 0.6465
-0.6059 -1.2896 0.6229
-0.5074 -1.2215 1.6731
-0.4567 -1.3025 1.7550
-0.2202 -1.4296 2.0713
-0.0460 -1.2203 0.5784
-0.0605 -1.0580 0.5080
-0.6647 -1.2803 0.5629
-0.6733 -1.3257 0.5872
-0.6082 -1.2613 1.4314
-0.5798 -1.2945 0.5325
-0.6146 -1.3776 0.4100
0.2739 -1.3383 1.0775
-0.5659 -1.3112 0.5044
-0.5037 -1.3254 0.7010
0.1112 -1.3332 0.9347
0.0771 -1.2982 0.9271
-0.2388 -1.3045 2.2222
0.2094 -1.3897 1.5380
-0.4308 -1.0955 0.5367
0.2058 -1.3798 1.5709
0.4378 -1.4118 2.4534
-0.4612 -1.3856 0.4145
-0.3986 -1.3114 0.5956
-0.3228 -1.3485 0.9541
-0.2638 -1.4209 1.0524
-0.1875 -1.3135 1.2134
-0.6369 -1.2800 0.8833
-0.6314 -1.3540 1.0702
-0.4041 -1.2934 0.8793
-0.4143 -1.4630 1.1268
-0.2814 -1.3052 0.7864
-0.3594 -1.3073 2.3808
0.5480 -1.3088 2.2607
-0.1058 -1.0404 0.4791
-0.1387 -1.3791 1.0227
0.0678 -1.3425 2.2308
-0.4177 -1.3426 0.5143
-0.4206 -1.2971 0.4403
-0.3910 -1.3733 1.8066
-0.8594 -1.3028 0.5228
-0.8972 -1.3573 0.3575
-0.7998 -1.2839 0.8824
-0.7607 -1.3768 0.5382
-0.6288 -1.2898 1.0635
-0.6713 -1.3710 0.3635
-0.0958 -1.2622 2.0644
0.0535 -1.4645 2.5027
-0.2820 -1.4049 0.5868
-0.9200 -1.4020 0.8168
-0.5952 -1.2887 0.3795
-0.8059 -1.3797 0.7310
-0.7339 -1.2798 0.6170
-0.7701 -1.3363 0.8670
-0.1073 -1.2855 0.7982
-0.0715 -1.4651 1.6269
-0.3124 -1.3662 2.0695
-0.5201 -1.2710 0.6223
-0.4410 -1.3480 2.3830
-0.6548 -1.2771 1.1713
-0.8761 -2.3415 0.4318
-0.7463 -1.2869 0.4274
-0.8063 -1.2739 1.3806
-0.0553 -1.4659 2.3250
-0.2309 -1.2549 1.9574
-0.6511 -1.2990 0.6252
-1.0588 -1.3127 0.9859
-1.0069 -0.9495 1.5289
-1.0778 -1.2816 1.7832
-0.6779 -1.2822 0.4210
-0.6341 -1.2835 0.6540
-0.2873 -1.3723 1.9202
-0.2392 -1.3379 2.1568
-0.0878 -1.2082 0.6162
-0.9285 -1.3212 0.9224
-0.7338 -1.2619 0.8105
-0.6382 -1.3627 0.3870
-0.0729 -1.4054 1.3835
-0.1624 -1.2666 0.7768
-0.4466 -1.2928 0.7631
-0.9916 -1.2894 0.6974
-0.2970 -1.2820 0.8941
-0.2603 -1.3727 0.6067
-0.3219 -1.3652 0.8895
-0.2243 -1.3413 0.7293
-1.0298 -1.2986 0.9371
-0.2508 -1.2733 0.7856
-0.2650 -1.3594 0.9023
-0.4958 -1.3156 0.7315
-1.0569 -1.3079 0.9253
-0.0631 -1.3004 1.2544
-0.0648 -1.3030 2.1171
-0.8804 -1.1434 1.8106
-0.1509 -1.3354 2.0960
-0.5975 -1.2580 0.6323
-0.4980 -1.2828 1.6435
-0.4838 -1.2374 1.6354
-0.3756 -1.4992 2.1241
-0.2731 -1.3549 2.0407
-0.1746 -1.2450 2.0960
-1.0322 -1.2614 0.6298
-0.2344 -1.2890 1.0025
-0.7356 -0.5003 1.4225
-0.1329 -1.2319 0.9720
-1.1493 -1.2850 0.9499
-1.0747 -1.2737 0.8911
-0.8556 -1.2551 0.9464
-0.7818 -1.3216 0.8838
-1.0005 -1.3171 0.8461
-0.4419 -1.2518 1.5096
-0.1828 -1.2497 2.0682
-0.2679 -1.3868 2.0414
-0.0985 -1.2832 1.4312
-1.1074 -1.2884 0.8139
-0.2547 -1.2660 1.9355
-0.9624 -1.3108 0.5367
-0.9568 -1.1897 0.6686
-0.2630 -1.2316 1.4449
-1.0796 -1.3322 1.1363
-0.9186 -1.2859 1.0217
-0.4069 -1.3407 1.0249
-0.6875 -1.3605 1.2721
-0.7878 -0.5496 1.5595
-0.8438 -1.3656 1.1565
-0.7828 -1.3255 1.1762
-0.6571 -1.3145 1.1197
-1.0555 -0.5412 1.4242
-0.4673 -1.2609 0.9696
-0.9557 -1.3029 0.7190
-1.2697 -0.5006 1.2558
-0.7769 -1.3750 0.8212
-0.6069 -1.3583 1.4918
-0.8157 -0.4959 1.5493
-0.9113 -0.5119 1.6305
-1.3148 -0.4854 1.2876
-0.8151 -1.2862 0.6883
-0.5514 -1.1942 1.6127
-0.6980 -1.2417 1.0360
-0.4692 -1.2184 1.6289
-0.5135 -1.1546 1.6169
-1.2335 -1.2895 0.9824
-0.4058 -1.2467 1.0571
-1.0336 -0.5410 1.7427
-1.1610 -0.4980 1.2612
-1.0195 -0.5040 1.4581
-0.7657 -1.3862 1.0801
-0.4584 -1.3080 1.4248
-0.8146 -1.3228 1.4051
-0.6704 -1.2765 1.7255
-0.5053 -1.2349 1.5998
-0.7796 -0.5362 1.5275
-0.7898 -0.5359 1.3974
-1.0865 -0.5653 1.5379
-1.3144 -0.4863 1.3972
-1.1877 -0.5046 1.2797
-1.0959 -0.5322 1.1176
-1.1579 -0.5141 1.0717
-0.5601 -1.2173 1.5723
-0.8276 -0.4817 1.5625
-0.8474 -0.5320 1.3507
-1.1258 -0.5485 1.4452
-0.8648 -1.2624 1.0249
-1.3102 -0.5173 1.3985
-1.0002 -1.2099 0.9162
-1.3509 -0.5118 1.4048
-1.3234 -0.5057 1.3706
-1.2502 -1.2512 1.0177
-1.5172 -0.5167 1.2698
-1.5816 -0.5303 1.2919
-1.3267 -0.4999 1.0039
-1.2918 -0.5332 0.9590
-0.7870 0.0783 0.8227
-1.2873 -0.5056 1.0825
-1.6072 -0.4957 1.2977
-0.7080 -0.4896 1.4155
-1.0152 -0.5167 1.5487
-0.9138 -0.5129 1.2765
-0.9086 -0.5225 1.2610
-1.0378 -0.5185 1.3943
-1.1190 -0.5477 1.3232
-1.1979 -0.4414 1.3554
-1.1875 -0.5309 1.3041
-1.3399 -0.5124 1.4142
-1.2386 -0.5070 1.2911
-1.0834 -0.4973 1.0978
-1.2081 -0.5229 1.0228
-1.2779 -0.5368 1.0565
-1.2668 -0.5429 1.0151
-1.3793 -0.5388 1.0435
-0.8545 -0.5475 1.6324
-1.1049 -0.5262 1.1103
-1.0969 -0.5270 1.1170
-1.2460 -0.5346 0.9975
-0.9094 -0.5430 1.2952
-0.7371 -0.5317 1.4571
-1.1979 -0.5104 1.3172
-2.6310 -0.7577 1.9377
-0.6394 -1.2829 1.2436
-1.1270 -0.4040 1.5789
-1.4373 -0.5419 1.4968
-1.6402 -0.5601 1.4555
-0.5465 -1.1753 1.5943
-0.8571 -0.5435 1.6521
-1.2188 -0.5134 1.0043
-0.9110 -0.5384 1.6696
-0.9608 -0.5437 1.3304
-1.3962 -0.5224 1.4925
-1.4181 -0.6698 1.0118
-0.8746 -0.0852 0.7700
-1.2791 -0.5608 2.7924
-1.3299 -0.4905 1.3129
-0.7041 0.1727 0.8107
-1.0358 -0.4280 1.4134
-1.6383 -0.5302 1.3913
-1.0883 -0.4348 1.3164
-1.1570 0.0038 1.1148
-1.0478 -0.5692 1.4393

