0.1489 -1.0566 0.1225
-0.2758 -1.0529 -0.0900
-0.1443 -1.0270 0.2822
-0.3009 -1.0122 -0.0888
-0.3239 -1.0174 -0.1066
-0.2515 -0.6024 -0.0587
-0.2334 -1.0803 -0.0388
0.2312 -1.2034 0.1473
0.1600 -1.0278 0.1277
-0.3837 -1.2451 0.1102
0.1538 -0.5448 0.1523
-0.3583 -1.1570 0.2339
-0.2855 -0.9202 0.2145
-0.0226 -0.8186 0.2548
-0.0395 -0.8234 0.2789
0.0677 -0.5880 0.2982
-0.1420 -1.0571 0.0533
0.0909 -0.5336 0.1550
-0.3405 -1.0545 -0.0633
-0.3343 -0.8385 0.1775
0.1138 -0.5619 0.0892
-0.2888 -0.9041 0.1248
0.1120 -0.5353 0.2240
-0.0977 -0.5045 0.3816
-0.3225 -1.0081 0.1712
-0.1363 -0.5781 0.3882
0.0665 -0.5856 0.2845
-0.2727 -0.6254 0.1252
0.0699 -0.4788 0.1469
-0.3396 -0.5544 0.1737
-0.0467 -0.0899 0.0303
0.2050 -0.2975 0.0383
-0.3406 -1.1546 -0.1094
-0.3062 -0.8584 0.1318
-0.0644 -0.1750 -0.0598
-0.0040 -0.0133 -0.0146
0.1645 -0.5078 0.1741
0.2487 -0.3375 0.0520
0.2278 -0.3129 0.0474
0.1559 -0.5118 0.3412
-0.3153 -0.7559 0.1595
0.1628 -0.5589 0.3375
0.3367 -0.5563 0.3198
0.4468 -0.5890 0.4405
0.1286 -0.5969 0.3520
0.1008 -0.5822 0.1604
0.3327 -0.5394 0.4004
0.5227 -0.7620 0.4721
-0.0141 -0.6069 0.2822
0.4084 -0.5261 0.3942
-0.3320 -0.7876 0.1753
0.0998 -0.5828 0.1454
-0.0230 -0.1324 0.0258
-0.2768 -0.5925 0.1269
0.1324 -0.5795 0.1872
0.3195 -0.5800 0.3205
0.0352 -0.0334 -0.0421
-0.0045 -0.0467 -0.0327
0.0032 -0.0214 -0.0728
0.0050 -0.0024 -0.0585
-0.0028 -0.0032 -0.0751
-0.0018 0.0039 -0.0690
-0.0001 -0.0077 -0.0758
-0.0004 -0.0438 -0.0764
-0.0022 -0.0037 -0.0550
0.0007 -0.0110 -0.0712
0.0042 -0.0030 -0.0581
-0.0517 -0.3363 -0.1134
0.1039 -0.6380 0.1619
0.1585 -0.5811 0.1658
0.1424 -0.6472 0.1030
-0.3107 -1.2038 -0.1111
-0.3596 -1.2166 0.2050
0.0626 -0.6191 0.3260
-0.2979 -1.2216 -0.1162
-0.0182 -0.6228 0.2894
-0.3182 -1.1222 -0.1065
-0.0350 -0.6336 0.3030
0.1925 -0.6587 0.4590
0.2797 -0.6608 0.3746
-0.0131 -0.6350 0.3612
-0.0736 -0.6443 0.4502
0.5270 -0.7180 0.5384
0.1312 -0.6093 0.1966
0.0865 -0.6214 0.3363
-0.2339 -0.5681 -0.0640
-0.2810 -0.5854 0.1121
0.1819 -0.5706 0.2010
-0.0002 -0.6344 0.2590
0.2683 -0.6173 0.2950
0.0524 -0.6114 0.3005
-0.0318 -0.5942 0.3735
-0.7002 -1.2964 0.8353
-0.1213 -1.2860 0.3473
0.7029 -1.2158 0.5304
-0.1741 -1.2400 0.3613
-0.6883 -1.2105 0.7620
-0.1556 -1.3078 0.0572
-0.3300 -1.2723 0.7284
-0.2863 -1.1844 -0.0842
0.2099 -1.3374 0.1179
-0.0790 -1.3351 0.1568
-0.3597 -1.1891 0.1634
0.7262 -1.3059 0.4776
0.1851 -0.6654 0.4036
-0.3431 -1.0800 -0.1302
-0.2427 -1.2449 -0.0947
-0.3186 -1.0411 -0.0760
-0.2910 -1.2481 -0.0652
-0.2457 -1.2234 -0.0522
-0.3630 -1.1811 -0.0406
0.0184 -1.3238 0.0942
-0.1487 -1.1853 0.3222
0.0925 -0.6334 0.2020
-0.3225 -0.6770 0.1601
0.0628 -0.6227 0.2848
-0.0225 -0.6499 0.2898
0.1295 -0.6518 0.3372
0.0531 -0.6467 0.3348
-0.1193 -0.6412 0.4767
0.0304 -0.6304 0.5151
-0.3734 -1.1603 -0.0544
-0.3409 -1.1548 -0.1270
-0.1597 -1.2404 0.3293
-0.3855 -1.2232 0.2335
-0.3891 -1.0660 0.2231
-0.5500 -1.4075 0.7129
-0.7684 -1.3590 0.8863
-0.1595 -1.3540 0.2588
0.8476 -1.1261 0.3688
-0.7332 -1.3062 0.5055
-0.3313 -1.1416 -0.0630
-0.3735 -1.3023 0.6065
0.0771 -0.6332 0.3750
-0.0375 -0.6423 0.3628
-0.1262 -0.6691 0.4605
-0.8161 -1.4024 0.8545
-0.1383 -0.6097 0.4928
-0.3822 -1.2215 0.1210
-0.3096 -1.2357 -0.0241
-0.3751 -1.2219 -0.0860
-0.6594 -1.3116 0.4032
-0.6846 -1.2919 0.4325
-0.4098 -1.2959 0.5547
-0.3100 -1.2686 0.5886
-0.7519 -1.1708 0.5600
0.3541 -0.8278 0.8406
-0.0899 -1.1223 0.4043
0.3581 -0.7269 0.7776
-0.1009 -1.2754 0.0605
-0.3320 -1.2413 -0.0372
-0.2183 -1.3088 0.4938
-0.3132 -1.3003 0.5754
-0.6604 -1.2842 0.3697
-0.7444 -1.2895 0.3959
-0.6688 -1.2815 0.7424
-0.7286 -1.2739 0.8053
-0.8692 -1.2598 0.4779
-0.4705 -1.3374 0.0356
-0.2769 -1.1882 -0.0462
-0.3086 -1.1495 -0.1279
-0.7386 -1.2703 0.3700
-0.8873 -1.2632 0.3669
-0.9443 -1.2482 0.4261
-0.9839 -1.2737 0.4572
-0.9542 -1.2685 0.4925
-0.9177 -1.2627 0.7582
-0.9299 -1.2624 0.7946
-0.1174 -1.2094 0.3325
0.1181 -0.6463 0.6912
-0.8371 -1.2938 0.7013
-0.3566 -1.2769 0.3414
-0.0122 -0.6263 0.4075
-0.5889 -1.3119 0.8455
-0.2918 -1.1189 -0.0382
-0.2830 -1.2621 0.4058
-0.8638 -1.2366 0.1995
-0.7698 -1.2684 0.3958
-0.5502 -1.2739 0.8636
-0.9634 -1.2278 0.3318
-0.8270 -1.2744 0.6888
-0.5774 -1.2778 1.2932
-0.1694 -1.2508 0.3662
-0.2364 -1.2951 0.0132
-0.2823 -1.2106 -0.0262
-0.0696 -1.2413 1.5436
-0.9613 -1.2032 0.3889
-0.1370 -1.1925 0.3537
-0.9769 -1.2726 0.6443
-0.9993 -1.2848 0.8002
-0.7510 -1.3737 0.9579
-0.1902 -1.2386 0.3520
-0.5839 -1.2936 0.8611
-1.2778 -1.2462 0.4013
-1.2177 -1.2389 0.3864
-0.0603 -1.1912 0.3555
-0.8477 -1.2463 0.6278
-1.1142 -1.2661 1.1487
-1.0891 -1.3803 0.6306
-1.5592 -1.2140 1.1468
-1.2296 -1.2395 0.3827
-0.4199 -1.3099 1.0741
-0.5064 -1.1903 0.7886
-0.5534 -1.2241 0.6065
-0.5395 -1.2448 0.5720
-0.8110 -1.1499 2.0804
-0.7094 -1.2112 0.7861
-1.1346 -1.2766 1.1530
-1.3223 -1.3430 0.9796
-1.3124 -1.2675 0.8166
-1.4507 -0.5878 1.4535
-1.4929 -1.3636 0.5898
-1.5169 -1.4735 0.3723
-1.1257 -1.2536 0.9281
-1.4582 -1.0188 1.5602
-0.8292 -0.9448 1.7939
-1.2576 -1.2566 0.2018
-1.4812 -1.0773 1.6166
-0.7483 -1.1719 0.9981
-0.7060 -1.1622 1.1551
-0.7727 -1.1725 1.2005
-0.7934 -1.1796 1.0168
-1.4115 -1.0973 0.5454
-0.6522 -1.2343 0.5381
-0.8312 -1.2500 0.7966
-0.7382 -1.2499 0.4580
-0.9657 -1.2499 0.7222
-0.9307 -1.2703 0.5525
-1.3418 -1.3011 0.6294
-1.9896 -1.4017 1.1028
-0.9226 -1.2072 0.9491
-1.1583 -1.2669 0.7196
-0.7250 -1.1965 0.4084
-0.6973 -1.2400 0.3791
-0.6657 -1.2226 0.3983
-0.9112 -0.8940 1.7543
-0.5874 -1.3796 1.3802
-0.7264 -1.2360 0.3852
-0.5205 -1.3774 0.6582
-0.6170 -1.2238 0.7545
-1.3049 -1.3858 0.5746
-1.3027 -1.3152 0.4727
-0.6100 -1.2192 1.4289
-0.4598 -1.1970 0.7577
-0.5807 -1.0605 1.1421
-0.4621 -1.2456 0.9079
-0.5293 -1.1699 0.8626
-0.5447 -1.2000 0.8418
-2.0058 -1.3713 0.9452
-2.0484 -1.4035 1.0071
-0.6613 -1.2459 1.2238
-0.5550 -1.2047 0.5728
-1.5343 -1.2873 0.7518
-0.6774 -1.1844 0.5740
-0.8497 -1.1928 1.0411
-0.9207 -1.2941 0.5367
-0.8332 -1.0793 1.2003
-0.6582 -1.1037 1.0710
-0.5594 -1.2297 0.5859
-0.8456 -1.1546 2.1404
-0.4823 -1.1121 1.0714
-1.6122 -1.2067 1.1590
-0.9265 -0.9651 1.8021
-0.9139 -1.0057 1.8299
-1.5488 -1.3861 0.4927
-0.7669 -0.8428 0.3961
-0.6397 -1.2589 1.5113
-0.7584 -0.9865 1.1420
-0.7944 -1.3235 1.6397
-1.4831 -0.9629 1.4704
-1.0476 -1.3802 0.4006
-1.1706 -1.3203 0.4430
-1.0996 -1.2576 1.0228
-0.8852 -1.1952 0.1841
-0.8649 -1.3638 0.5158
-0.7915 -1.1956 0.5735
-0.6852 -1.3164 0.2829
-0.6035 -1.2212 0.3269
-0.7518 -1.1025 0.6982
-0.6713 -1.1902 0.5047
-0.7175 -1.1990 0.4320
-1.1939 -0.5379 1.7425
-0.9293 -1.1704 0.4199
-1.0237 -1.2757 0.4509
-1.3173 -0.7729 1.4591
-1.6859 -1.2646 0.7725
-0.7369 -1.2003 0.7237
-0.7551 -1.2145 0.5599
-0.8162 -1.2918 0.5655
-0.5094 -1.1064 1.0047
-0.7259 -1.2757 0.8219
-2.0260 -1.3128 1.0026
-1.2054 -1.2457 0.4690
-0.7968 -1.2317 1.0371
-0.4049 -1.2270 0.9542
-0.2665 -1.2448 0.5029
-1.0519 -1.2581 0.2070
-0.6558 -1.3510 1.4959
-0.8503 -1.2568 0.2446
-1.1645 -1.1892 0.0918
-0.8803 -1.2711 0.2288
-1.4214 -1.2220 0.4433
-1.1978 -1.2319 0.5653
-1.4662 -0.9845 1.5544
-1.3724 -1.2061 0.9545
-1.0852 -1.2002 0.1386
-0.7693 -1.2008 0.5282
-0.7528 -1.2068 0.3803
-0.9782 -1.3251 0.5006
-1.2019 -1.2595 0.5474
-1.4314 -1.2355 0.7070
-1.6234 -1.2816 0.4360
-0.4753 -1.2520 0.5441
-0.5723 -1.3091 0.8544
-0.8211 -1.1879 0.5523
-1.2920 -1.1187 0.3325
-0.8217 -1.2449 0.1749
-0.6680 -1.1960 0.3970
-0.7282 -1.1850 0.4605
-0.5850 -1.2481 0.6956
-1.0734 -1.2794 0.4570
-1.7644 -1.2571 0.6066
-0.7325 -1.2791 0.4448
-0.9899 -1.1591 0.0674
-1.0635 -1.1758 0.1538
-0.8066 -1.3265 0.1710
-0.3608 -1.0057 0.5474
-0.8462 -1.1670 0.5851
-0.5726 -1.2833 0.8160
-1.2017 -1.2934 0.6566
-1.5702 -1.1347 1.1777
-0.7481 -1.2984 0.5426
-1.3649 -1.2816 0.4403
-1.0845 -1.2613 1.1716
-0.6827 -1.2251 0.4331
-0.6205 -1.1502 0.5012
-0.6503 -0.9625 0.4074
-1.3795 -0.5381 1.3307
-0.7287 -1.2488 0.3536
-1.0596 -1.1171 1.0677
-1.5325 -1.3390 0.7126
-0.8159 -1.1982 0.2498
-0.8272 -1.2066 0.8364
-0.5192 -1.2819 0.8964
-0.5436 -1.2443 0.5686
-1.6975 -1.2130 0.6189
-1.0298 -1.2156 0.9218
-2.1465 -1.1844 1.1747
-0.9655 -1.1822 0.0800
-0.5056 -1.2856 0.6403
-1.0267 -1.2893 0.8868
-1.0175 -1.2520 0.3740
-0.8961 -1.2251 0.0043
-1.0572 -1.2869 0.4372
-0.9694 -1.2462 0.4777
-1.0594 -1.3087 0.6077
-0.7949 -1.3087 1.1325
-0.6088 -0.6846 0.3362
-0.7690 -1.3863 0.2123
-0.8279 -1.3002 0.7979
-0.8598 -1.1289 1.0536
-0.7269 -1.2223 0.5984
-0.6301 -1.2996 0.5222
-0.6962 -1.1936 0.5588
-0.6691 -1.3044 0.4024
-1.3577 -1.0822 0.4498
-1.0734 -1.0372 0.2595
-1.7441 -1.2770 0.7421
-0.9715 -1.2445 0.4363
-1.5527 -1.1972 0.8546
-0.7518 -1.2923 1.0483
-0.7039 -1.2414 0.5338
-1.0024 -1.2022 0.1343
-1.5008 -1.0523 1.6117
-1.5492 -1.0671 1.5671
-0.6240 -1.2267 0.3859
-1.1320 -1.2281 0.8088
-1.7818 -1.3607 0.6511
-0.8195 -0.9415 0.3578
-0.8114 -0.8358 0.4612
-1.0417 -1.2315 0.1777
-1.3128 -1.3175 0.3736
-1.5258 -1.2452 0.6276
-1.5392 -1.1321 0.8117
-0.7724 -1.2739 0.5335
-0.6815 -0.9798 0.4043
-0.9818 -1.2356 0.3883
-0.6119 -1.2015 0.2102
-1.1909 -1.2248 0.6593
-0.6532 -1.5535 0.1737
-0.9508 -1.2562 0.3391
-0.4915 -1.1376 0.7675
-1.4041 -0.9905 1.6419
-1.0352 -1.1403 0.6215
-0.5703 -1.1926 1.2300
-0.3968 -1.2942 0.9833
-0.9326 -1.2698 0.4679
-1.2777 -1.8583 0.7675
-1.0903 -1.2505 1.2029
-0.9156 -1.1671 1.9607
-0.4767 -1.2782 1.3946
-0.3183 -1.2245 0.8719
-0.8409 -1.2400 0.2513
-1.5902 -1.3554 0.6891
-0.3438 -1.3535 0.9133
-1.2916 -1.1970 0.9483
-0.8441 -1.0669 1.9346
-0.9286 -1.0143 1.8514
-0.4241 -1.2265 0.9382
-0.7269 -1.3094 1.4136
-0.8425 -1.1822 1.1506
-0.7125 -1.1950 0.8012
-0.7138 -1.3875 0.7962
-1.1186 -1.2636 0.9225
-0.7662 -1.1801 1.4467
-0.6592 -1.2134 1.3048
-0.7700 -1.1195 0.9796
-0.5934 -0.9931 1.3771
-0.8401 -0.9515 1.7694
-0.9668 -0.5097 1.6990
-0.9622 -1.1881 1.3388
-1.2272 -0.5448 1.6071
-1.1164 -0.4358 1.3916
-1.1289 -1.0716 0.7752
-0.3750 -1.1460 1.0911
-1.2041 -0.5396 1.5982
-0.8428 -1.1305 0.8815
-1.9941 -1.0127 0.9801
-2.0612 -1.1161 1.0677
-0.6499 -0.3607 1.4339
-0.9383 -0.6318 2.2942
-0.8896 -0.5774 2.0964
-0.9821 -0.5402 2.1636
-0.2622 -1.3160 1.5144
-0.9801 -0.5569 2.2375
-1.6688 -0.5502 1.7962
-0.6173 -0.4391 2.4823
-0.6546 -0.4352 2.3189
-1.1809 -0.4968 1.9335
-0.8063 -0.5215 2.7287
-0.4274 -1.1391 1.7773
-1.4947 -0.5467 2.4718
-0.6768 -1.0619 0.7181
-0.2085 -1.3319 2.1015
-1.0399 -1.2272 0.6866
-0.1403 -1.3792 1.0572
-0.1924 -1.4000 1.6360
-0.6599 -0.4380 1.5785
-0.8775 -0.3351 1.4243
-0.5410 -1.1384 1.5739
-0.6574 -1.1159 1.1881
-1.0434 -0.4897 1.8303
-1.5288 -1.1822 1.1501
-0.6408 -1.2309 1.4125
-1.0382 -0.4537 1.7443
-0.7697 -1.2281 1.5601
-0.4816 -1.0523 1.2829
-1.5309 -0.4543 1.6553
-0.2059 -1.2488 2.0370
-1.2700 -0.4442 1.2443
-1.1728 -0.4884 1.5393
-0.3806 -1.3757 1.2891
-0.8371 -1.1197 0.9263
-1.3976 -0.4609 1.4059
-0.6794 -0.4326 1.5860
-0.5993 -1.0027 1.1858
-1.1083 -1.0202 0.7836
-0.6586 -0.4268 1.5682
-0.8964 -1.0957 0.8805
-0.6078 -0.6543 3.0910
-0.9355 -0.4943 3.2072
-0.1706 -1.1434 1.5004
-1.1255 -0.4968 1.8896
-0.8374 -0.4107 1.9332
-1.0416 -0.5450 1.7751
-1.0317 -1.1605 1.1243
-1.0811 -1.1350 0.7799
-0.7572 -1.1447 1.1354
-0.3954 -1.1303 1.7782
-0.4177 -1.1724 1.7502
-1.2034 -0.4865 1.5297
-1.0205 -1.1923 1.0412
-1.2563 -1.1472 1.2742
-0.1355 -1.1744 1.4409
-0.3147 -1.1968 1.8107
-1.2015 -0.3360 3.7169
-1.5990 -0.4887 1.7186
-1.3712 -0.4346 2.2092
-0.3320 -0.9938 1.3449
-1.2676 -0.4412 1.6148
-1.0342 -1.1627 0.8820
-0.9032 -0.6084 3.3838
-0.6790 -0.4929 2.5459
-0.9366 -0.4473 2.0183
-1.1964 -0.5099 1.9795
-0.2697 -0.9356 1.3502
-2.5738 -0.5311 2.5225
-0.8433 -0.4387 1.9429
-0.5909 -1.1431 1.3910
-0.9739 -1.1048 1.2526
-0.8853 -1.1741 0.9709
-0.7591 -1.1205 1.4978
-2.4605 -0.6436 2.8163
-1.2576 -1.1739 1.2590
-1.3262 -1.2112 1.2446
-0.9917 -0.2174 1.2224
-1.5745 -0.4965 1.7148
-0.9560 -0.4852 1.6658
-0.9503 -0.4688 1.6047
-0.4306 -1.1202 1.7626
-1.2659 -1.1864 1.2630
-0.5919 -1.2016 1.4222
-0.5720 -1.1585 1.3828
-1.5787 -1.2608 1.1787
-0.9648 -0.5163 2.1652
-1.0567 -0.5072 1.8567
-1.0448 -1.2529 1.4392
-1.1784 -0.4936 1.5483
-1.0153 -0.6401 3.3005
-0.9418 -0.5098 3.2586
-0.7645 -1.1996 1.5515
-0.4664 -1.1560 1.3355
-0.9626 -0.4410 1.8985
-1.2528 -0.4517 1.6992
-2.3764 -0.3270 3.0030
-2.4195 -0.7433 2.7287
-2.4611 -0.1049 2.2862
-2.4725 -0.2874 2.9382
-1.8155 -0.3269 3.3185
-2.7316 -0.5998 2.6736
-0.6630 -1.2271 1.3882
-1.4440 -0.5110 1.4528
-2.9897 -0.6109 2.6571
-2.9290 -0.3010 2.5983
-1.9533 -0.7088 3.6371
-1.2799 -0.3189 3.9719
-0.8550 -0.4741 2.0008
-1.0411 -0.4574 1.7545
-0.4334 -1.0918 1.7495
-2.0529 -0.5033 3.6419
-0.8261 -0.6338 3.1698
-1.6690 -0.2869 3.5791
-1.4142 -0.4826 2.2766
-1.3067 -1.1721 1.2291
-0.4744 -1.1466 1.8446
-1.0870 -1.2488 1.1425

