0.2800 -1.3142 -0.0073
-0.0375 -0.7825 0.7517
-0.0427 -0.7769 0.6994
-0.3751 -1.2906 1.0639
-0.1446 -1.3292 -0.0768
-0.6200 -1.2716 0.4484
-0.1276 -1.3080 0.1288
-0.3184 -1.3020 0.9883
-0.5092 -1.3605 1.1921
-0.0458 -0.4390 0.6145
-0.3404 -1.3149 0.5587
0.0348 -0.6315 0.4534
-0.4480 -1.3437 1.1070
-1.0758 -1.3375 0.8053
-0.5874 -1.2790 0.9555
-0.3963 -1.3151 0.6719
-0.0197 -0.7400 0.6637
-0.5651 -1.3233 0.8022
-0.5069 -1.2674 0.5541
-0.7746 -1.3217 0.9547
0.3212 -1.1784 0.1688
-0.4860 -1.2874 0.8414
-0.5259 -1.3539 1.2407
-0.3479 -1.3206 1.0903
-0.8885 -1.2178 0.4297
-1.0710 -1.3180 0.8996
-0.0484 -0.6690 0.3553
0.1136 -1.2635 -0.2248
-0.3963 -1.3080 0.0860
-0.7546 -1.2826 0.6668
-0.9163 -1.2924 0.5597
-0.8670 -1.3383 0.9029
0.0040 -1.2670 -0.0876
-0.0462 -1.2785 -0.1556
-0.6752 -1.3303 0.5254
-0.8160 -1.2833 0.7643
-0.2598 -1.2751 0.2296
-0.3873 -1.2204 0.6739
-1.0567 -1.2968 0.8179
-0.9267 -1.2796 0.5949
-0.3380 -1.2861 0.0165
-0.3284 -1.2747 0.9611
0.2477 -1.2899 -0.0357
-0.0277 -0.4386 0.6621
-0.0430 -0.4456 0.6540
-0.5808 -1.3223 0.8413
-0.6252 -1.3214 0.8736
-0.0533 -0.5038 0.6624
0.3060 -1.1872 0.1731
-0.7441 -1.2953 0.4870
-0.8428 -1.3616 1.4358
0.2253 -0.6964 0.3637
-0.4562 -1.3156 1.1295
-0.8248 -1.0605 0.6664
-0.0094 -1.2567 -0.0949
-0.0566 -0.6551 0.2674
-0.8570 -1.2243 0.8081
-0.3795 -1.3180 0.1502
-1.1727 -1.1376 0.6616
-0.0187 -0.7455 0.1624
0.3123 -0.6696 0.2888
0.0153 -1.2355 -0.1929
-0.4946 -1.2874 0.2252
-0.0245 -1.2949 -0.0931
-0.3899 -1.3067 0.1892
-0.6688 -1.2922 0.4016
-0.7576 -1.2992 1.7824
-0.1111 -1.3142 0.0725
-0.1435 -1.2922 0.1057
-0.3123 -1.2783 1.0627
-0.4420 -1.3952 1.1247
-0.3929 -1.3363 1.0200
-0.2986 -1.3062 0.5400
-0.6148 -1.3154 0.9364
-0.4670 -1.2811 0.8888
-1.2979 -1.4531 1.1579
-0.3647 -1.4321 0.0364
-0.7148 -1.3417 1.3385
-0.0379 -0.5226 0.6411
-0.0383 -0.4927 0.6510
-0.0159 -1.2617 -0.2306
-0.1503 -1.2821 -0.1415
0.0690 -1.2261 -0.2768
-0.0398 -1.2830 -0.1732
0.1340 -1.2061 -0.2115
0.2599 -1.2723 -0.0214
-0.9675 -1.2304 1.2523
0.3179 -1.2541 0.1632
0.0205 -1.3042 0.0367
-0.0615 -1.3310 0.1082
0.2173 -1.3277 -0.0308
-0.9873 -1.3902 0.9660
-0.8762 -1.3237 0.8746
-0.2919 -1.3354 1.4109
0.1947 -1.3233 0.0910
-0.4651 -1.3259 0.0827
-0.5233 -1.3802 1.5041
-0.0286 -1.2848 -0.1646
0.0304 -1.2902 -0.2012
-0.6011 -1.2835 1.4552
-0.3743 -1.2649 0.7499
-0.3448 -1.2976 0.8338
-0.3328 -1.3200 1.0387
-0.5581 -1.3733 1.2360
-0.1382 -0.5313 0.2854
-0.0791 -1.2935 0.1178
-0.1280 -1.3191 0.0654
0.0603 -1.3248 0.0270
-0.4629 -1.2429 0.9688
-0.4641 -1.4540 0.6922
-0.6533 -1.3026 1.0915
-0.2093 -1.2737 0.0916
-1.0108 -1.3463 1.2730
-0.4400 -1.3158 0.7919
-0.6552 -1.3392 0.9911
-0.6618 -1.2151 1.8543
0.1754 -0.6765 0.3622
-0.5482 -1.4227 1.0811
-0.0955 -1.2680 -0.0880
0.3020 -1.2361 0.1738
0.0469 -1.2243 -0.2587
0.2866 -1.2837 0.0008
0.0650 -1.2032 -0.3092
-0.1302 -1.2887 -0.1984
0.0358 -1.2477 -0.2955
-0.1873 -1.2970 -0.1577
-0.0298 -1.2879 -0.2331
0.0223 -1.2510 -0.2637
-0.1600 -1.2719 -0.1404
-0.5808 -1.2218 0.1206
-0.4339 -1.2921 0.0355
0.0963 -1.2989 -0.2913
-0.0189 -1.2400 -0.1661
0.0355 -1.2731 -0.1818
-0.1429 -1.3351 -0.0581
0.0061 -1.2730 -0.1374
-0.3622 -1.3347 0.1100
0.1093 -1.2898 -0.1786
-0.2081 -1.3206 0.0618
-0.1246 -1.3044 0.0322
-0.2674 -1.2454 0.1399
0.1342 -1.3254 -0.1265
-0.0294 -1.2564 -0.0037
-0.0365 -1.3301 0.0138
-0.1518 -1.2946 0.1321
0.0193 -1.2780 0.1359
-0.0813 -1.2397 0.2185
-0.4106 -1.2679 0.4553
0.2161 -1.3365 0.0241
0.1802 -1.2870 0.0527
-0.0205 -1.3236 -0.0323
-0.0845 -0.7871 0.6905
-0.0261 -0.6700 0.4887
-0.0887 -0.3265 0.1515
-0.2224 -1.2874 0.2186
0.1710 -1.3243 -0.1019
0.0869 -1.2402 -0.1528
0.1005 -1.2536 -0.1940
-0.0682 -1.2936 -0.1230
-0.5009 -1.4061 0.0954
-0.5318 -1.2171 0.1274
-1.2132 -1.1343 0.5197
-0.3312 -1.2824 -0.0467
-1.4533 -1.4105 0.6581
-0.9696 -1.3633 0.4328
-1.2027 -1.1965 0.6000
-0.9878 -1.3284 0.6923
-0.5637 -1.2763 0.8890
-0.5409 -1.2984 1.3915
-0.8368 -1.2670 0.9671
-0.5420 -1.3328 0.5545
-1.0671 -1.4473 0.7180
-0.5821 -1.3778 0.0076
-0.7734 -0.6710 0.2464
0.2741 -1.3122 0.0088
0.0495 -1.2503 -0.3173
0.0565 -1.2417 -0.3369
0.0252 -1.2688 -0.3286
-0.0550 -1.2803 -0.2739
-0.1177 -1.3194 -0.2548
-0.0032 -1.2978 -0.2561
0.0113 -1.2853 -0.2456
-0.1533 -1.3211 -0.1094
-0.0595 -1.3137 -0.1307
-0.1901 -1.3523 -0.0546
-0.0512 -1.1927 0.2314
0.1159 -1.3270 -0.0447
-0.1203 -1.2129 0.0928
-0.0284 -1.2430 -0.2973
-0.2086 -1.3419 0.1703
-0.6736 -1.3187 0.4616
-0.1222 -1.2823 -0.2288
-0.0321 -0.6270 0.3163
-0.2348 -1.2892 0.1397
-0.4056 -1.3655 -0.0981
-0.2026 -1.3642 -0.1919
-0.1161 -1.3040 -0.2188
0.0869 -1.2928 -0.0553
-0.2007 -1.3166 -0.1578
-0.1485 -1.3310 -0.1764
-0.5174 -1.1849 0.8480
-0.6647 -1.3089 0.1177
-0.2050 -1.2831 -0.0597
-0.6125 -1.3693 0.7922
0.2022 -1.3448 -0.0004
-0.0065 -1.3088 -0.1568
-0.3798 -1.3695 0.5514
-0.6956 -1.3686 0.3617
-1.0697 -1.7077 0.9014
-0.2094 -1.2977 0.0051
0.1869 -1.2550 0.0570
-0.3422 -1.3527 0.7755
0.2597 -1.2836 0.2171
-0.0530 -1.3056 -0.1658
-0.1039 -1.3254 -0.1568
-0.9040 -1.2810 0.4852
-0.2265 -1.1940 -0.0550
0.0977 -1.2374 -0.2489
-0.3699 -1.3196 0.0987
-0.0915 -0.3742 0.1454
-0.2562 -1.2146 -0.2161
-0.2607 -1.2953 -0.2696
-0.2738 -1.3149 -0.2827
-0.2217 -1.2713 -0.2832
-0.0394 -1.2569 -0.3496
-0.3123 -1.3546 -0.2665
-0.0697 -1.2668 -0.3287
-0.1122 -1.2637 -0.3118
-0.0393 -1.2387 -0.3238
-0.2454 -1.1960 -0.2285
-0.0609 -1.2730 -0.2945
-1.2716 -1.3179 0.1687
-1.1109 -1.2088 0.1661
-0.1766 -1.3442 -0.1981
-0.2483 -1.2440 -0.1196
-0.2937 -1.2921 -0.1099
0.0282 -1.2923 -0.1673
-1.5517 -1.4526 0.5367
-0.0088 -1.2600 -0.1136
-0.3165 -1.2344 0.4638
-0.3262 -1.3318 0.0374
-0.0766 -1.3616 0.3099
0.0673 -1.3968 0.1391
-0.1152 -1.2432 0.2017
-0.0360 -1.3137 0.1699
-0.7144 -1.3596 0.5311
-0.0094 -1.2433 -0.3611
-1.0166 -1.2558 0.0128
0.0261 -1.2940 0.0353
0.0120 -1.3535 0.0217
-0.3057 -1.3095 0.1492
-0.0977 -1.2668 -0.2187
-0.4313 -1.3396 0.1446
-0.8427 -1.3463 0.0807
-0.6054 -1.4026 -0.0149
-0.8920 -1.4384 1.0999
-0.4778 -1.3662 0.0552
-0.4435 -1.3124 0.3863
-0.6203 -1.1891 0.3626
-0.9121 -1.2265 1.1620
-1.0380 -1.3872 1.0500
-0.9657 -1.3954 0.9207
-0.7738 -1.3136 0.7131
-0.2591 -1.3073 0.3961
-0.0697 -1.2451 0.2499
0.1175 -1.4313 0.1842
-0.0159 -1.2831 0.1084
-1.7014 -1.5734 0.6280
-1.0824 -1.1138 0.2692
-0.2671 -1.2831 -0.1097
-0.0841 -1.2836 -0.1967
-1.2072 -1.2292 0.1902
-0.0570 -1.2618 -0.2798
-0.7216 -1.3094 -0.0369
-0.8995 -1.2802 0.6722
-0.8676 -1.2982 0.5450
0.1131 -1.0896 0.9510
-1.6931 -1.4303 0.6062
-0.4571 -1.2989 1.1845
-1.4613 -1.2844 0.6949
-0.4938 -1.2002 -0.0101
-0.1610 -1.2722 -0.1051
-0.7313 -0.9494 -0.0526
-0.5190 -1.3252 -0.1817
-0.6982 -1.2882 -0.1384
-0.0845 -1.2585 -0.3405
-0.5269 -1.3079 -0.2744
-0.0681 -1.2310 -0.3778
-0.4710 -1.3279 0.5528
-1.5173 -1.4237 0.8795
-1.1536 -1.4291 0.2373
-1.2139 -1.2552 0.2010
-0.4180 -1.2815 -0.3039
-0.0290 -0.6667 0.4679
-0.0429 -0.4609 0.6465
-0.4921 -1.1804 0.1890
-0.5227 -1.1757 0.0633
-0.5538 -1.0849 0.0180
-1.0863 -1.3168 0.0619
-0.2072 -1.2663 -0.1337
-0.3837 -1.2766 -0.3622
-0.0697 -1.2100 -0.4165
-1.0360 -1.5232 -0.4851
-0.0864 -1.2095 -0.4460
-0.2487 -1.3623 -0.4972
-0.2926 -1.2795 -0.2116
-0.0314 -1.2627 -0.4102
-1.0899 -1.1197 0.0917
-0.1706 -1.1796 -0.3762
-0.1921 -1.2269 -0.5100
-0.4687 -1.4484 -0.5677
-1.3036 -1.3420 0.2826
-0.0902 -1.2693 -0.3590
-0.3710 -1.2715 -0.3909
-0.1391 -1.2423 -0.3519
-0.1246 -1.2970 -0.3453
-0.3806 -1.2700 0.1789
-0.2976 -1.3929 -0.3580
-0.4046 -0.2258 -0.3044
0.0025 -1.2840 -0.2484
-1.0148 -0.8752 -0.1158
-0.8624 -1.1734 -0.0740
-1.1800 -1.2934 0.3178
-0.8710 -1.2052 0.2747
-0.9694 -1.3319 0.1895
-0.4069 -1.3189 -0.5694
-0.1235 -1.1494 0.2780
-0.7173 -1.2919 0.4163
-0.5143 -1.3677 -0.4116
-0.8769 -1.2599 0.0245
-1.0104 -1.2529 -0.1917
-0.8086 -0.5748 -0.2118
-0.0998 -1.2741 -0.3776
-0.5865 -1.2768 -0.5065
-0.7513 -1.5027 -0.6166
-0.1324 -1.3103 -0.4854
-0.0242 -1.2258 -0.4062
0.0370 -1.3255 -0.3508
-0.0644 -1.2732 -0.5901
0.0008 -1.1695 -0.5333
-0.1660 -1.3089 -0.6082
-0.1908 -1.2838 -0.6082
-0.4615 -1.2868 -0.6105
-0.4522 -1.3562 -0.5804
-0.2647 -1.2936 -0.1093
-0.5190 -1.2452 -0.0423
-0.1256 -1.3127 -0.5903
-0.2863 -1.2034 -0.5388
-0.3108 -1.2855 -0.4847
-0.8198 -1.2020 -0.4603
-0.3874 -1.3038 -0.4910
-0.6352 -1.2479 -0.5875
-0.2267 -1.3453 -0.1533
-0.1225 -1.2367 -0.4154
-0.4357 -1.1609 -0.5429
-0.8459 -1.2175 -0.0555
-1.2179 -1.3488 0.2003
-1.2457 -1.3097 0.1828
-0.4054 -1.3754 0.1127
-0.6540 -1.4199 0.1211
-0.7164 -1.4646 0.1824
-0.7921 -1.3994 -0.3657
-0.4436 -1.2798 0.3272
-0.3757 -1.3242 -0.6575
-0.2078 -1.3166 -0.7021
-0.6177 -1.2709 -0.8892
-0.0068 -1.1381 -0.5601
-0.1917 -1.3409 -0.7079
-0.9993 -0.9053 -0.0491
-0.7838 -1.2733 -0.6958
-0.3979 -1.1660 -0.4753
-0.8330 -1.2628 -0.0699
-0.7402 -1.3109 -0.5173
-0.4840 -1.3421 -0.4170
-0.4852 -1.3006 -0.3859
-0.8023 -1.3265 -0.2479
-0.7891 -1.3292 -0.2845
-0.7709 -1.3275 -0.3328
-0.3011 -1.2861 -0.6717
-0.6607 -1.4075 -0.4187
-0.1723 -1.3030 -0.5795
-0.8766 -1.2801 -0.5178
-0.3706 -1.3710 -0.7455
-0.4075 -1.2572 -0.5122
-0.3468 -1.1999 -0.6810
-0.2258 -1.3694 -0.2768
-0.2943 -1.3557 -0.0944
-0.7365 -1.2316 -1.0314
-1.0299 -0.4961 -0.3347
-0.7512 -1.2348 -1.0158
-0.7756 -1.1648 -1.0120
-0.7893 -1.3281 -1.0242
-0.6686 -1.2778 -0.1243
-1.0118 -0.5427 -0.4742
-0.9867 -0.5146 -0.3776
-0.9253 -0.5312 -0.5234
-0.5705 -1.3623 -0.9467
-0.4684 -1.3293 -0.2977
-0.5678 -1.3111 -0.8906
-0.6460 -1.2988 -0.9191
-0.7710 -1.2760 -0.5167
-0.5545 -1.3309 -0.5217
-0.7352 -1.3002 -0.6433
-0.9910 -0.5095 -0.3568
-0.3816 -1.2809 -0.5425
-0.6005 -1.3238 -0.6481
-0.5762 -1.3218 -0.7035
-0.7921 -1.3120 -1.0177
-0.5135 -1.3144 -0.1765
-0.3142 -1.4174 -0.3799
-0.2600 -1.2347 -0.4440
-0.8784 -0.4911 -0.7973
-0.8982 -0.4856 -0.3266
-1.1568 -0.4774 -0.3942
-0.8167 -0.5580 -0.7880
-1.2000 -0.5712 -0.5391
-0.9544 -0.5515 -0.5846
-0.8400 -0.5321 -0.7900
-0.8325 -0.4975 -0.7762
-0.9739 -0.5812 -0.8414
-0.8967 -0.5270 -0.6368
-0.9485 -0.5698 -0.7196
-1.0738 -0.5505 -0.3806
-1.1282 -0.5672 -0.4209
-1.0602 -0.5377 -0.6152
-0.1249 -1.2718 -0.6102
-0.0907 -1.2608 -0.5733
-0.7774 -1.1735 -0.7422
-0.6525 -0.5938 -0.6942
-1.0183 -1.1995 0.0321
-1.0110 -1.2398 -0.1912
-0.4294 -1.1954 -0.5533
-0.0797 -1.3024 -0.3856
-0.8551 -1.2254 -0.0937
-0.5199 -1.1150 0.0991
-0.3595 -1.1488 -0.6230
-0.3133 -1.3944 -0.7572
-0.0891 -1.2703 -0.6119
-1.0125 -0.5746 -0.8639
-0.6391 -1.2581 -0.3681
-0.6417 -1.2566 0.1037
-0.7143 -1.3680 0.2087
-0.0953 -1.3208 -0.5567
-0.0595 -1.3713 -0.4414
-0.3853 -1.3210 -0.4108
-0.4951 -1.2432 0.0397
-0.2248 -1.2278 -0.6511
-0.2201 -1.2527 -0.3516
-1.1837 -0.5369 -0.5458
-1.1766 -0.5418 -0.6287
-0.9938 -0.5209 -0.5024
-1.0800 -0.5701 -0.6692
-1.0414 -1.3037 0.0351
-1.0360 -0.5571 -0.4827
-1.0895 -0.6126 -0.4762
-0.9573 -0.5388 -0.6165
-0.9360 -0.5676 -0.7092
-0.8811 -0.5262 -0.7860
-0.9654 -0.5437 -0.4652
-0.9169 -0.5342 -0.7272
-0.2977 -1.3371 -0.2362
-0.6732 -1.4418 0.1367
-0.9319 -1.3645 -0.0681
-0.8180 -1.4899 -0.3300
-0.9250 -0.5287 -0.7677
-0.7231 -1.2684 -0.5096
-0.6478 -1.3889 -0.9267
-0.9553 -1.3412 -0.0337
-0.8244 -0.5952 -0.8024
-0.9004 -0.5711 -0.7010
-0.6039 -0.5383 -0.6829
-1.1227 -0.5151 -0.5547
-1.1777 -0.6046 -0.7800
-1.1025 -0.5155 -0.6551
-1.0217 -0.5622 -0.6514
-0.7577 -1.2465 -1.0209
-0.1857 -1.4092 -0.3172
-1.0793 -0.5698 -0.4577
-0.9679 -0.5732 -0.5657
-0.9732 -0.5374 -0.5873
-0.7167 -1.3307 -0.2309
-1.1757 -0.5317 -0.5126
-1.0908 -0.6052 -0.4535
-0.5388 -1.2683 -0.0014
-1.1866 -0.5443 -0.6436
-1.0824 -0.6077 -0.5549
-1.1053 -0.5557 -0.7675
-1.0680 -0.6022 -0.6164
-1.1754 -0.5951 -0.6533
-0.8246 -0.4993 -0.5897
-1.0783 -0.5441 -0.7891
-0.6046 -1.2808 0.1233
-0.9653 -0.6074 -0.7508
-0.5995 -1.7143 -0.3234
-1.0877 -0.5243 -0.5855
-0.2876 -1.3880 -0.5596
-1.2508 -0.6011 -0.7394
-0.3441 -1.3247 -0.6270
-1.3959 -0.5510 -0.6134
-1.0403 -0.5837 -0.4619
-0.8534 -1.2193 -0.0504
-1.0768 -0.5487 -0.7551
-0.8090 -1.2697 -0.2992
-0.9424 -1.2781 -0.4611
-1.2010 -0.6349 -0.9024
-0.5300 -1.3540 -0.8285
-0.8229 -1.2849 -0.4526
-0.3553 -1.2005 -0.2725
-0.9175 -1.2242 0.1459
-0.5452 -1.1930 -0.5692
-0.7897 -1.1231 -0.4808
-0.5915 -1.3333 -0.1370
-0.8186 -1.2734 -0.1599
-1.0583 -0.5589 -0.4343
-1.1762 -0.5368 -0.5713
-0.7914 -1.5131 -0.0198
-0.9732 -0.5610 -0.6667
-1.1306 -0.5201 -0.5190
-1.0291 -1.0465 0.0878
-1.2308 -0.5159 -0.3809
-1.0488 -0.5591 -0.2864
-1.2360 -0.5217 -0.4140
-1.1651 -0.5245 -0.3968
-0.7246 -1.2170 0.2230
-0.7805 -1.2652 0.1631
-1.2531 -0.5278 -0.6848
-0.9744 -1.5139 -0.2736
-0.6173 -0.7272 -0.2981
-0.5506 -1.2255 -0.3369
-0.4637 -1.2392 -0.5977
-1.2068 -0.5065 -0.4674
-1.4337 -0.5945 -0.6670
-0.7540 -1.2143 -0.0065
-1.1221 -1.0939 0.1618
-1.0302 -0.9675 0.0938
-1.1393 -1.2052 0.2003
-1.1157 -0.9464 0.0047
-1.1608 -0.5235 -0.6053
-1.1387 -1.1069 0.1767
-1.1229 -1.1386 0.1556
-1.0874 -1.0856 0.0829
-1.0339 -0.5231 -0.2303
-1.0677 -0.5117 -0.3192
-1.3715 -0.5118 -0.5602
-1.1435 -0.5471 -0.6677
-1.1066 -0.5646 -0.8181
-0.9991 -0.5391 -0.5557
-1.4121 -0.5553 -0.2264
-1.2378 -0.6919 -0.2026
-1.2166 -0.5029 -0.2769
-1.2976 -0.5734 -0.2839
-1.1895 -0.4974 -0.3222
-1.2030 -0.5457 -0.3604
-0.9990 -0.5174 -0.3739
-1.0018 -0.5241 -0.4412
-0.9695 -0.5007 -0.4554
-1.2607 -0.5257 -0.6381
-1.0980 -0.5247 -0.5762
-0.9738 -0.5969 -0.6015
-1.1943 -0.6427 -0.8150
-0.8972 -0.5186 -0.6725
-1.1527 -0.5373 -0.1431
-1.3531 -0.5674 -0.1989
-1.1500 -0.5174 -0.1878
-1.3899 -0.4825 -0.3414
-0.9849 -1.1786 -0.1921
-1.3417 -0.5368 -0.2427
-1.0000 -0.5546 -0.8395
-0.9208 -0.4434 -0.4442
-1.2450 -0.4823 -0.7590
-1.0420 -0.4572 -0.3444
-1.1285 -0.5650 -0.3174
-1.5372 -0.5627 -0.3434
-0.4677 0.0966 -0.2698

