-0.4003 -0.6221 -0.0273
-0.0501 -0.5463 -0.1167
-0.0284 -0.5440 0.0335
-0.5256 -0.5621 0.0207
-0.0050 -0.5259 0.1921
-0.0093 -0.5320 0.1408
-0.3382 -0.5579 -0.0254
-0.3854 -0.6138 0.2000
-0.3479 -0.5547 0.2030
-0.0497 -0.5581 -0.0953
-0.5329 -0.5521 0.0445
-0.4128 -0.6112 -0.0268
-0.0390 -0.5696 -0.0117
-0.0263 -0.5693 -0.1016
-0.4252 -0.5300 0.4377
-0.3909 -0.5776 -0.1350
-0.0144 -0.5459 0.1220
-0.2299 -0.5896 -0.0276
-0.0338 -0.5863 0.0118
-0.1501 -0.5270 0.2226
-0.0024 -0.5681 0.1648
-0.1697 -0.5695 0.2174
-0.4523 -0.5523 0.2734
-0.3448 -0.5833 0.2126
-0.1666 -0.5370 0.1548
-0.3433 -0.5333 0.1084
-0.1575 -0.5626 0.0547
-0.2271 -0.6260 0.0628
-0.4005 -0.5311 0.4531
-0.4246 -0.5328 0.4594
0.0159 -0.5811 0.1638
-0.1913 -0.5839 0.0966
-0.3757 -0.5592 -0.1107
0.0115 -0.5374 0.1706
0.0076 -0.5794 0.1251
-0.3988 -0.6128 0.2520
0.0048 -0.5320 0.0942
-0.1891 -0.5898 0.0597
-0.1963 -0.5900 0.0126
-0.1670 -0.5447 -0.0738
-0.2482 -0.5853 -0.1356
-0.5925 -0.6116 0.0021
-0.0400 -0.5958 -0.0860
0.0203 -0.5803 0.2297
-0.2093 -0.5326 0.1417
-0.2394 -0.5994 0.1109
-0.2396 -0.5911 0.0872
-0.2338 -0.5653 0.0640
-0.2204 -0.5936 0.0392
-0.0158 -0.5657 -0.0152
-0.2317 -0.6196 0.0161
-0.2369 -0.6164 -0.0057
-0.1896 -0.5427 -0.0310
-0.2381 -0.6022 -0.0494
-0.2715 -0.6089 -0.0685
-0.2475 -0.5433 -0.0809
-0.2287 -0.5600 -0.0862
-0.1045 -0.1658 -0.0093
-0.2224 -0.5648 -0.1380
0.0070 -0.5701 0.1626
-0.5135 -0.5581 0.2261
-0.5211 -0.5510 0.1347
-0.4985 -0.5504 0.2604
-0.0640 -0.5650 -0.0761
0.0158 -0.5280 0.1895
-0.1531 -0.5997 0.2648
-0.0341 -0.5497 0.1820
-0.1033 -0.5478 0.1917
-0.2200 -0.6049 0.2430
-0.1815 -0.5339 0.1603
-0.2218 -0.5735 0.1746
-0.2345 -0.5990 0.1341
-0.0035 -0.5444 0.0520
-0.2546 -0.6140 0.0440
-0.2748 -0.6018 0.0464
-0.2302 -0.5487 0.0204
-0.2589 -0.5471 -0.0178
-0.2557 -0.5931 -0.0244
-0.1260 -0.5652 -0.0849
-0.4525 -0.5580 -0.0523
-0.2705 -0.5495 -0.0777
-0.5005 -0.5473 -0.0890
-0.2426 -0.5227 -0.1176
-0.1361 -0.5380 0.3288
0.0160 -0.5315 0.2276
-0.1400 -0.5278 0.2835
-0.1470 -0.5393 0.2677
-0.5468 -0.5701 -0.1097
-0.0458 -0.5170 0.1790
-0.0175 -0.5826 0.1700
-0.2034 -0.5461 -0.0702
-0.5044 -0.5398 0.0012
-0.5792 -0.6340 0.0958
-0.0187 -0.5256 -0.0296
-0.6030 -0.6220 0.0253
-0.3482 -0.6116 0.2505
-0.1463 -0.5398 0.1796
-0.5399 -0.5887 0.2584
-0.0525 -0.5594 -0.0769
-0.2404 -0.5377 0.0840
-0.0677 -0.5333 -0.0586
-0.0185 -0.2037 0.1242
-0.2108 -0.5892 0.2604
-0.1998 -0.6021 0.2083
-0.2289 -0.6132 0.2147
-0.4733 -0.5674 -0.1430
-0.2180 -0.5227 0.1901
-0.1728 -0.5953 0.1598
-0.4385 -0.5578 0.2429
-0.1872 -0.5425 0.1418
-0.1991 -0.5596 0.1235
-0.2764 -0.6306 0.1187
-0.2203 -0.6106 0.0854
-0.3086 -0.6042 -0.1562
-0.2517 -0.5440 0.0232
-0.3210 -0.5451 0.0332
-0.0647 -0.5406 -0.0298
-0.2702 -0.5718 0.0017
-0.2877 -0.5587 0.0055
-0.2813 -0.5833 -0.0393
-0.3442 -0.5386 -0.1266
-0.4926 -0.5491 -0.0226
-0.4656 -0.5458 -0.0262
-0.4922 -0.5450 -0.0448
-0.3438 -0.5556 -0.0675
-0.1975 -0.5558 -0.0945
-0.3457 -0.5537 -0.0879
-0.3057 -0.5607 -0.0971
-0.2767 -0.5496 -0.0992
-0.4997 -0.5433 -0.1099
-0.4950 -0.5633 -0.1175
-0.4748 -0.5424 0.3645
-0.4461 -0.5572 0.3436
-0.1194 -0.5726 0.1848
-0.5221 -0.6155 0.3558
-0.1658 -0.5447 0.1771
-0.5402 -0.5940 0.1420
-0.2042 -0.5563 -0.0464
-0.3572 -0.5390 -0.0842
-0.2702 -0.6170 0.0786
-0.1445 -0.5515 0.3131
-0.2617 -0.5902 0.0682
-0.1500 -0.5574 0.1859
-0.0917 -0.5345 -0.0555
-0.3071 -0.5448 -0.1560
-0.2579 -0.5446 -0.1429
-0.0548 -0.5492 0.2073
-0.1889 -0.6029 0.2609
-0.1513 -0.5718 0.2320
-0.1767 -0.5354 -0.1382
-0.3534 -0.6016 0.2695
-0.4133 -0.5564 0.2381
-0.4659 -0.5614 0.2491
-0.0461 -0.5479 0.0819
-0.2971 -0.5559 -0.0534
-0.2939 -0.6023 -0.0630
-0.1021 -0.5521 -0.1091
-0.0268 -0.5274 0.2541
-0.1707 -0.6140 0.2792
-0.0426 -0.5453 0.1634
-0.0800 -0.5681 0.1768
-0.3772 -0.6076 0.2379
-0.1875 -0.5942 0.1446
-0.0317 -0.5543 0.0742
-0.1805 -0.5564 0.1167
-0.1033 -0.5594 0.2786
-0.2378 -0.5765 -0.2074
-0.0806 -0.6207 -0.2246
-0.1021 -0.5790 -0.2047
-0.0323 -0.5758 -0.0955
-0.4360 -0.6095 -0.1896
-0.0389 -0.5727 -0.1414
-0.0378 -0.5750 -0.0545
-0.5402 -0.6096 -0.1776
-0.2427 -0.5532 -0.1693
-0.2742 -0.5731 -0.1720
-0.3056 -0.5912 -0.1741
-0.0625 -0.5953 -0.1754
-0.2459 -0.5721 -0.1540
-0.0865 -0.5695 -0.1630
-0.2984 -0.5885 -0.1289
-0.0593 -0.6011 -0.1526
-0.0298 -0.5949 -0.1306
-0.2492 -0.5845 0.1806
-0.0698 -0.5615 0.1113
-0.0763 -0.5721 -0.0933
-0.1005 -0.5635 -0.0879
-0.4048 -0.5598 -0.0374
-0.2630 -0.6031 0.1380
-0.2669 -0.6070 -0.0457
-0.2423 -0.5638 -0.0015
-0.5678 -0.6232 0.1208
-0.1455 -0.5989 0.0040
-0.5428 -0.6182 0.0653
-0.0458 -0.5599 -0.0654
-0.5174 -0.5501 -0.1779
-0.3344 -0.5901 -0.1923
0.0211 -0.5420 0.2370
-0.0676 -0.6094 -0.2044
-0.1879 -0.6183 -0.0477
-0.1346 -0.5778 0.2061
-0.2374 -0.5800 0.2388
-0.1483 -0.5481 0.2925
-0.3994 -0.5750 -0.2031
-0.1647 -0.6001 0.2947
-0.0688 -0.5698 0.1752
-0.4109 -0.6056 -0.1687
-0.2127 -0.5589 -0.0870
-0.5543 -0.5883 -0.0205
-0.1461 -0.5895 -0.0682
-0.0833 -0.5709 -0.0865
-0.2015 -0.5672 -0.1838
-0.6118 -0.6089 -0.1455
-0.0559 -0.5980 -0.0838
-0.5931 -0.6130 -0.1460
-0.0363 -0.6017 -0.1821
-0.2021 -0.5862 0.3026
-0.1523 -0.5704 -0.0819
-0.5381 -0.6069 0.0393
-0.5385 -0.6176 0.0910
-0.0816 -0.5662 0.0432
-0.1461 -0.5634 0.1237
-0.5092 -0.5972 0.1855
-0.0083 -0.5699 0.0317
-0.2679 -0.6002 0.0923
-0.2632 -0.6092 0.1636
-0.1356 -0.5654 0.3169
-0.0838 -0.5798 0.2000
-0.1910 -0.5632 0.3123
-0.2085 -0.5972 0.2856
-0.0154 -0.5844 0.2071
-0.1690 -0.5898 0.2471
-0.1801 -0.6063 0.2157
-0.0972 -0.6132 0.1909
-0.1449 -0.5742 0.1888
-0.5234 -0.6052 0.3017
-0.3544 -0.6038 0.2415
-0.5423 -0.6058 0.1912
-0.0237 -0.5609 -0.0311
-0.0676 -0.6008 -0.0826
-0.4143 -0.6059 -0.1905
-0.0854 -0.0820 0.0633
-0.1222 -0.5659 0.2686
-0.2258 -0.5819 0.3052
-0.0077 -0.5756 0.2089
-0.5960 -0.6130 -0.1712
-0.4783 -0.5935 0.3404
-0.3689 -0.6134 -0.1732
-0.1336 -0.1474 0.0516
-0.2845 -0.5947 0.1399
-0.5356 -0.5931 0.1643
-0.0300 -0.5865 0.0357
-0.5827 -0.6094 -0.0964
-0.1744 -0.1767 -0.0264
-0.5870 -0.6171 -0.0732
-0.2994 -0.6080 -0.0888
-0.3257 -0.6110 -0.0847
-0.3358 -0.6083 -0.1530
-0.2376 -0.5941 0.2671
-0.0019 -0.5262 0.1759
-0.0195 -0.6073 0.1928
0.0464 -0.5968 -0.0160
-0.0755 -0.0686 0.0033
-0.0520 -0.5918 -0.0424
-0.2157 -0.5904 -0.0486
-0.5687 -0.6128 -0.1747
-0.5549 -0.6206 -0.0277
-0.1230 -0.6054 -0.0261
-0.4989 -0.5764 0.1332
-0.0448 -0.5902 0.1115
-0.1458 -0.6074 0.1801
-0.2531 -0.6118 -0.1201
-0.1498 -0.5993 0.2883
-0.1810 -0.6040 0.3056
-0.2787 -0.5871 -0.0200
-0.0679 -0.5861 -0.0329
-0.5101 -0.6045 0.2111
-0.0231 -0.5929 0.0833
0.0006 -0.5812 0.0784
-0.5882 -0.6124 -0.1210
-0.2926 -0.6060 0.1190
-0.0658 -0.6106 -0.0098
-0.5390 -0.6223 0.1167
-0.0608 -0.0603 0.0098
-0.0859 -0.5844 0.0202
-0.0843 -0.5926 -0.1457
-0.1096 -0.0982 -0.0119
-0.2942 -0.5995 0.0957
-0.0189 -0.5775 0.1052
-0.1996 -0.5678 -0.0316
-0.2270 -0.5997 0.3362
-0.3244 -0.6019 -0.1060
-0.4868 -0.6159 -0.1631
-0.4320 -0.6169 0.0500
-0.0541 -0.6038 0.2073
-0.1803 -0.5944 0.1918
-0.0682 -0.5420 -0.0233
-0.0062 -0.5972 -0.0432
-0.0374 -0.5930 -0.0572
-0.2288 -0.6226 -0.0829
-0.0126 -0.6015 -0.1096
-0.0493 -0.5879 -0.1439
-0.2225 -0.5554 -0.1554
-0.0733 -0.5464 -0.1117
-0.1304 -0.6059 0.2631
-0.0493 -0.0196 0.0521
-0.0599 -0.5873 0.0159
-0.0375 -0.5752 0.1555
-0.0667 -0.5814 0.1378
-0.1504 -0.6073 0.1559
-0.0563 -0.5943 0.0402
-0.3443 -0.6264 0.0071
-0.1654 -0.1674 0.0482
-0.1452 -0.5986 0.3103
-0.3509 -0.6156 -0.0576
-0.1801 -0.5822 0.1058
-0.1018 -0.0822 0.0211
-0.2004 -0.1737 -0.0270
-0.1840 -0.1959 0.0762
-0.1680 -0.1801 0.0413
-0.1087 -0.0841 0.0978
-0.0977 -0.0652 0.0439
-0.4727 -0.5967 0.0568
-0.5206 -0.6081 0.3275
-0.5640 -0.6107 -0.1493
-0.5837 -0.6307 0.0436
-0.0431 -0.5858 0.1750
-0.0281 -0.5729 0.1001
-0.1531 -0.5543 -0.0608
-0.0821 -0.5953 -0.0790
-0.2314 -0.6070 -0.1265
-0.2412 -0.6021 -0.1936
-0.1228 -0.5867 0.1885
-0.2577 -0.6055 -0.1646
-0.0583 -0.5438 0.1846
-0.1155 -0.5882 0.1713
-0.0702 -0.5817 0.1144
-0.0740 -0.5834 0.0910
-0.0523 -0.5874 0.0636
-0.0067 -0.5874 0.0320
-0.1632 -0.5952 0.0573
-0.1939 -0.5971 0.0365
-0.1720 -0.6008 0.0078
-0.0902 -0.5872 -0.0046
-0.0464 -0.6053 -0.0718
-0.0600 -0.1603 0.0302
-0.0669 -0.0420 0.0427
-0.0643 -0.0607 0.0240
-0.1020 -0.0680 0.0278
-0.0674 -0.0342 0.0634
-0.0267 -0.0896 -0.0191
-0.4792 -0.6073 0.3952
-0.2680 -0.6171 0.0773
-0.0353 -0.5797 0.2532
-0.1553 -0.5843 0.1935
-0.1492 -0.5608 0.2283
-0.2667 -0.5565 0.1554
-0.3035 -0.6026 0.0274
-0.2540 -0.6407 -0.0791
-0.0487 -0.0033 0.0451
-0.0632 -0.0209 0.0464
-0.0160 -0.1455 0.0453
-0.0505 -0.0124 0.0402
-0.0676 -0.0310 0.0538
-0.0594 -0.0151 0.0529
-0.1350 -0.1446 -0.0109
-0.1167 -0.0917 0.0872
-0.1001 -0.0607 0.0252
-0.0648 -0.0229 0.0534
-0.0689 -0.0317 0.0621
-0.0564 -0.0801 0.0694
-0.0716 -0.0379 0.0477
-0.0565 -0.0520 0.0500
-0.0679 -0.0819 0.0705
-0.0526 -0.0733 0.0277
-0.1033 -0.0615 0.0185
-0.0789 -0.0405 0.0372
-0.1065 -0.0674 0.0161
-0.0624 -0.0285 0.0335
-0.0843 -0.0606 0.0651
-0.0469 -0.0273 0.0523
-0.0756 -0.0362 0.0403
-0.0468 -0.0266 0.0396
-0.0702 -0.0409 0.0440
-0.0551 -0.0221 0.0375
-0.0488 -0.0291 0.0452
-0.0496 -0.0353 0.0388
-0.0624 -0.0234 0.0289

