-0.0204 -0.4894 0.4659
-0.3106 -0.4659 0.4134
-0.0132 -0.4913 0.6368
-0.0385 -0.5745 0.6898
-0.3868 -0.5210 0.7163
0.0008 -0.5193 0.6597
-0.0383 -0.5640 0.4880
-0.2061 -0.5064 0.5273
-0.2160 -0.5121 0.8215
-0.2810 -0.4717 0.4951
-0.2205 -0.4940 0.3465
-0.0995 -0.5440 0.8505
-0.0518 -0.5247 0.9408
0.0221 -0.4984 0.6822
-0.0147 -0.4964 0.6891
0.0387 -0.5225 0.5090
-0.1212 -0.4725 0.7510
-0.1073 -0.4338 0.5366
-0.1797 -0.4955 0.7026
-0.0537 -0.5245 0.4819
-0.0442 -0.5577 0.4712
-0.1482 -0.5113 0.6095
-0.0470 -0.4757 0.3237
-0.0808 -0.5005 0.3194
-0.2524 -0.5677 0.5721
-0.3396 -0.5320 0.6930
-0.1604 -0.4950 0.3729
-0.2808 -0.5067 0.5294
-0.3750 -0.4890 0.6448
-0.2067 -0.4893 0.3863
-0.3755 -0.4834 0.5518
-0.3825 -0.5716 0.5215
-0.3698 -0.5686 0.4972
-0.2506 -0.4910 0.3150
-0.1912 -0.4794 0.2659
-0.4016 -0.5013 0.4013
-0.2881 -0.4916 0.6547
-0.2842 -0.4971 0.7414
-0.0474 -0.4987 0.6409
-0.3437 -0.5702 0.7036
-0.0437 -0.4975 0.4967
0.0731 -0.4849 0.4904
-0.0231 -0.5035 0.6176
-0.1696 -0.5072 0.8214
-0.1913 -0.5181 0.8030
0.0155 -0.5088 0.3851
-0.0098 -0.4601 0.3760
-0.0614 -0.4985 0.4395
-0.2369 -0.5252 0.7257
-0.0940 -0.4958 0.3690
-0.1482 -0.4954 0.3692
-0.3981 -0.4888 0.5604
-0.2443 -0.5668 0.3185
-0.4254 -0.4982 0.6331
-0.2822 -0.4822 0.2654
-0.0143 -0.4965 0.6847
0.0450 -0.4644 0.4726
-0.1177 -0.5329 0.8275
-0.1544 -0.5596 0.8493
-0.1237 -0.5026 0.6285
-0.0036 -0.5200 0.3901
-0.1393 -0.4878 0.6058
-0.1469 -0.4758 0.5654
-0.3325 -0.5828 0.7451
-0.0962 -0.4868 0.3862
-0.3308 -0.5361 0.6980
-0.1295 -0.5037 0.3785
-0.2782 -0.5643 0.5546
-0.1914 -0.5360 0.3688
-0.2193 -0.5191 0.3049
-0.4144 -0.4955 0.5344
-0.4151 -0.4958 0.5167
-0.4171 -0.4819 0.4938
-0.4830 -0.4801 0.5307
-0.4373 -0.5291 0.6751
-0.2301 -0.5031 0.5541
0.0817 -0.4922 0.5212
0.0668 -0.5063 0.5166
0.0333 -0.4983 0.5053
-0.1046 -0.4966 0.7683
-0.0081 -0.4924 0.5082
-0.0752 -0.5703 0.6771
-0.1353 -0.5117 0.6578
0.0228 -0.5076 0.3530
-0.2410 -0.5833 0.8521
-0.1464 -0.5648 0.6367
-0.1090 -0.5032 0.3916
-0.1036 -0.5019 0.3025
-0.3355 -0.4808 0.4521
-0.2413 -0.4849 0.3278
-0.0554 -0.4929 0.6355
-0.3428 -0.4966 0.6606
-0.1696 -0.5064 0.3100
-0.2703 -0.5013 0.2866
0.0086 -0.5060 0.7101
0.0972 -0.4924 0.4220
0.0484 -0.4978 0.5311
0.0052 -0.5025 0.6593
-0.0228 -0.4973 0.6542
-0.0374 -0.4630 0.6419
-0.1136 -0.5000 0.8019
-0.0559 -0.4931 0.6440
-0.0765 -0.4679 0.6113
-0.0013 -0.5140 0.4633
-0.1668 -0.5008 0.7844
-0.0443 -0.4970 0.4988
-0.0336 -0.4751 0.4659
-0.0303 -0.5010 0.4348
-0.1248 -0.4784 0.5930
-0.1094 -0.4839 0.5571
-0.0554 -0.5297 0.4649
-0.1303 -0.4849 0.4764
-0.2273 -0.5506 0.5937
-0.1955 -0.4881 0.5295
-0.1171 -0.5029 0.3788
-0.3073 -0.4865 0.6654
-0.1234 -0.4720 0.3529
-0.3111 -0.4914 0.6307
-0.2519 -0.4854 0.5219
-0.2852 -0.5324 0.5308
-0.2002 -0.4882 0.3326
-0.3389 -0.5193 0.5053
-0.2574 -0.4906 0.3761
-0.3788 -0.5558 0.4981
-0.3276 -0.4916 0.4500
-0.2308 -0.4865 0.3265
-0.1993 -0.5108 0.2589
-0.3768 -0.4897 0.4142
-0.4985 -0.4857 0.5463
0.0848 -0.4969 0.4624
-0.1124 -0.4952 0.8063
0.0444 -0.5655 0.4499
-0.1488 -0.5579 0.6872
-0.1621 -0.4838 0.6392
-0.2135 -0.4861 0.2995
-0.3395 -0.5121 0.4741
-0.1408 -0.4906 0.3968
0.0846 -0.5174 0.5517
-0.3068 -0.4903 0.2924
-0.3916 -0.4821 0.4320
-0.3131 -0.4981 0.3430
0.0312 -0.4896 0.5127
0.0103 -0.4904 0.5161
-0.3588 -0.4919 0.4745
-0.0211 -0.4848 0.5252
-0.2732 -0.5642 0.3911
-0.4664 -0.5603 0.6777
-0.4287 -0.5156 0.6811
-0.0348 -0.5041 0.5174
-0.1894 -0.4961 0.3707
-0.2141 -0.4882 0.4206
-0.3461 -0.5105 0.6818
-0.1131 -0.5207 0.6338
-0.2647 -0.5642 0.5494
-0.3461 -0.4996 0.7037
-0.1508 -0.5006 0.4099
-0.3220 -0.5028 0.7222
-0.2944 -0.4931 0.6861
-0.2046 -0.4876 0.5415
-0.1170 -0.4857 0.4104
-0.2664 -0.4898 0.6956
-0.1207 -0.5043 0.4698
0.0599 -0.4930 0.5211
-0.1034 -0.4788 0.4850
-0.2604 -0.5091 0.7078
-0.2386 -0.4914 0.6362
-0.0926 -0.4689 0.3719
-0.3323 -0.5557 0.7562
-0.2091 -0.4795 0.5624
-0.0962 -0.4863 0.5313
-0.0717 -0.4910 0.4931
-0.0996 -0.4816 0.3254
-0.0624 -0.4974 0.5086
-0.2282 -0.5036 0.4979
-0.1371 -0.5024 0.3487
-0.0520 -0.4929 0.5125
-0.3836 -0.5004 0.6809
-0.2149 -0.4940 0.4009
-0.0952 -0.4970 0.6297
-0.0260 -0.4955 0.5106
-0.2986 -0.4776 0.4703
-0.2247 -0.4833 0.3532
-0.0149 -0.5040 0.5287
-0.0540 -0.5062 0.8748
-0.2390 -0.4874 0.3457
-0.1873 -0.4977 0.2673
-0.4172 -0.4905 0.5772
-0.2677 -0.4869 0.3664
-0.0889 -0.5006 0.7603
-0.4136 -0.4811 0.4152
-0.3292 -0.4747 0.4103
-0.2159 -0.4927 0.2537
-0.4777 -0.4820 0.5700
-0.0971 -0.5102 0.8276
-0.3307 -0.5052 0.3615
-0.3982 -0.4799 0.4405
-0.2236 -0.4988 0.2185
0.0684 -0.5038 0.4743
-0.1582 -0.5177 0.8116
-0.0874 -0.4892 0.4646
-0.0915 -0.5239 0.4312
-0.0755 -0.5249 0.3696
-0.2493 -0.4792 0.5100
-0.1586 -0.4687 0.3228
-0.3381 -0.4891 0.5927
-0.2978 -0.5044 0.5187
-0.3287 -0.4921 0.5242
-0.1763 -0.4948 0.2717
-0.1928 -0.4776 0.2672
-0.2878 -0.5051 0.2966
-0.2388 -0.4877 0.2102
-0.1701 -0.5075 0.4301
0.0543 -0.4720 0.5071
0.0688 -0.4916 0.7072
-0.1931 -0.4707 0.3469
0.0482 -0.5128 0.5646
0.0641 -0.5164 0.7515
-0.1665 -0.5611 0.4519
-0.3148 -0.4825 0.5003
-0.4095 -0.5168 0.6609
-0.2124 -0.5592 0.3837
0.0164 -0.5101 0.4899
-0.2008 -0.5330 0.4092
-0.1844 -0.5550 0.3970
-0.1733 -0.4899 0.3920
-0.2034 -0.4923 0.4941
-0.2078 -0.4752 0.4944
-0.2381 -0.5556 0.5517
-0.0293 -0.4924 0.6628
-0.2292 -0.4720 0.3080
-0.0383 -0.4907 0.3672
-0.0595 -0.5571 0.4018
-0.2308 -0.4792 0.2839
-0.1696 -0.5000 0.5588
-0.0574 -0.5325 0.3302
0.1267 -0.4923 0.4360
-0.1041 -0.5063 0.3551
-0.2836 -0.4930 0.4024
-0.0279 -0.4899 0.4036
0.1098 -0.5075 0.5106
-0.1726 -0.5433 0.8248
-0.2145 -0.4702 0.2541
-0.1973 -0.5358 0.3198
-0.3541 -0.4955 0.6580
0.0150 -0.4670 0.4527
0.0249 -0.4527 0.6297
-0.2413 -0.4747 0.2636
-0.1898 -0.4913 0.3574
-0.0068 -0.4772 0.3522
-0.0268 -0.5146 0.3721
-0.2240 -0.5061 0.2469
-0.1931 -0.4727 0.2385
0.0946 -0.4583 0.4534
-0.1006 -0.5791 0.6512
-0.3088 -0.4963 0.4427
0.1401 -0.6548 0.8250
0.0580 -0.4830 0.6983
0.1300 -0.5033 0.5153
0.0196 -0.4975 0.7330
-0.0228 -0.5371 0.9121
-0.0247 -0.4701 0.6395
-0.0035 -0.5510 0.6415
-0.0287 -0.4800 0.4150
-0.1087 -0.4313 0.5207
-0.1365 -0.4788 0.3811
-0.2550 -0.5206 0.3555
-0.2406 -0.4987 0.2898
0.0064 -0.4844 0.7619
0.1424 -0.5138 0.6217
0.1267 -0.4972 0.6201
0.1172 -0.4981 0.6364
0.1248 -0.4987 0.6089
0.0861 -0.4992 0.6712
0.0864 -0.5073 0.5056
-0.0356 -0.5080 0.4410
-0.2464 -0.5698 0.8247
-0.1838 -0.4868 0.6779
-0.1532 -0.5146 0.3764
-0.3451 -0.5675 0.5273
-0.4213 -0.5351 0.6460
-0.4782 -0.5743 0.6680
-0.2277 -0.5870 0.2869
-0.1768 -0.4816 0.2367
-0.2675 -0.5289 0.3102
-0.2337 -0.5045 0.2390
-0.2054 -0.5114 0.3584
0.1435 -0.5128 0.4784
0.0420 -0.5029 0.4562
-0.1078 -0.5787 0.8267
-0.0940 -0.5083 0.5687
-0.1868 -0.5745 0.7026
-0.1154 -0.5198 0.3759
-0.1774 -0.5619 0.3860
-0.1909 -0.4948 0.3717
-0.2828 -0.4846 0.4406
-0.2457 -0.5644 0.3559
-0.3189 -0.5009 0.4509
-0.1989 -0.4857 0.2697
-0.0544 -0.4933 0.4481
-0.1234 -0.5360 0.3464
-0.1197 -0.5080 0.3811
0.0722 -0.5116 0.5658
0.0275 -0.5005 0.5512
-0.1475 -0.5279 0.4110
-0.1932 -0.5195 0.2732
-0.0001 -0.5205 0.4881
0.0142 -0.5067 0.3951
-0.2771 -0.5291 0.3162
-0.1772 -0.5582 0.2339
0.0755 -0.5106 0.5044
-0.0197 -0.5096 0.8772
-0.0269 -0.5262 0.9155
-0.2233 -0.5029 0.4269
-0.2991 -0.4976 0.5636
-0.3569 -0.5687 0.7343
-0.2087 -0.5228 0.5545
-0.1264 -0.5617 0.4058
-0.0145 -0.5448 0.6777
-0.0947 -0.5300 0.4472
-0.1866 -0.5445 0.8637
-0.0463 -0.5626 0.5295
0.0188 -0.5023 0.3532
-0.1283 -0.5545 0.8593
-0.2001 -0.5003 0.2637
-0.1336 -0.5065 0.7966
-0.0189 -0.5090 0.5327
0.0750 -0.5126 0.5539
-0.4383 -0.5738 0.6021
-0.0538 -0.5665 0.6898
-0.1892 -0.5120 0.8239
-0.0993 -0.5070 0.5679
-0.1058 -0.5590 0.5704
-0.0743 -0.4938 0.4783
0.1021 -0.4847 0.4663
-0.0418 -0.5161 0.4123
-0.1421 -0.5679 0.6549
-0.2736 -0.5045 0.3979
-0.4901 -0.5739 0.6892
-0.1321 -0.5666 0.6197
-0.1591 -0.5729 0.6630
-0.2267 -0.5229 0.8227
-0.3475 -0.5268 0.4736
-0.0471 -0.5288 0.3372
-0.1190 -0.5089 0.4513
-0.1075 -0.5497 0.3996
-0.0935 -0.5569 0.3574
-0.1960 -0.5131 0.5621
-0.2331 -0.4432 0.3120
0.0661 -0.5056 0.4020
-0.1238 -0.5728 0.3655
-0.2266 -0.5752 0.5599
-0.2655 -0.5093 0.3452
-0.2745 -0.5650 0.2643
-0.1449 -0.5406 0.3582
-0.2730 -0.4832 0.5853
-0.3046 -0.5087 0.5008
-0.2724 -0.4853 0.4569
0.0554 -0.5204 0.5049
-0.5147 -0.5666 0.6160
-0.3501 -0.5023 0.4266
0.0827 -0.5245 0.4137
-0.2787 -0.5234 0.3040
0.0861 -0.5110 0.4968
-0.2726 -0.5464 0.5046
-0.1633 -0.5096 0.2385
-0.2383 -0.5002 0.3310
-0.4957 -0.5210 0.6077
-0.2146 -0.4856 0.2277
0.0782 -0.4985 0.5155
-0.0990 -0.5125 0.3583
-0.4230 -0.5067 0.4669
-0.2208 -0.5261 0.5641
-0.0352 -0.5646 0.4982
0.0889 -0.4945 0.5082
0.0719 -0.5233 0.6111
0.0069 -0.5325 0.5011
0.0420 -0.5162 0.6432
-0.1308 -0.5328 0.3709
-0.2054 -0.5057 0.3595
0.0291 -0.5092 0.5888
-0.2499 -0.5271 0.3567
-0.0297 -0.5196 0.6751
0.0110 -0.4697 0.3494
0.0020 -0.5156 0.5027
-0.3021 -0.5033 0.3071
-0.5587 -0.5777 0.5994
-0.3899 -0.5781 0.4285
-0.0789 -0.5205 0.6583
-0.0158 -0.5656 0.4955
-0.3266 -0.5269 0.4557
-0.0447 -0.4839 0.4289
-0.2938 -0.5789 0.3904
-0.0714 -0.5130 0.3952
-0.1471 -0.4803 0.2965
-0.1639 -0.5649 0.5676
-0.2043 -0.5248 0.6251
-0.1216 -0.5296 0.4491
-0.1277 -0.1616 0.3529
-0.1300 -0.5638 0.4137
-0.1526 -0.5305 0.3409
-0.1446 -0.5011 0.4843
-0.2333 -0.4949 0.2721
-0.2012 -0.5466 0.6744
-0.1394 -0.4945 0.3879
-0.3506 -0.5225 0.5413
-0.4180 -0.5832 0.4310
-0.1254 -0.5294 0.3933
-0.1762 -0.5299 0.4357
-0.2999 -0.5190 0.5187
-0.4570 -0.5188 0.4686
-0.0924 -0.5235 0.6574
-0.2563 -0.5691 0.5863
-0.5807 -0.5837 0.5862
-0.5995 -0.5914 0.6042
0.0169 -0.5670 0.5526
-0.2422 -0.5765 0.2413
-0.2401 -0.5657 0.2861
-0.0271 -0.5599 0.5400
-0.2235 -0.5204 0.5528
-0.2177 -0.5563 0.8790
-0.1352 -0.5368 0.4233
-0.0759 -0.5143 0.3193
-0.1078 -0.5274 0.4353
-0.2583 -0.5674 0.8252
-0.0107 -0.4925 0.6415
-0.2330 -0.5616 0.2184
-0.1984 -0.5321 0.3183
-0.1601 -0.5559 0.6912
-0.2281 -0.5384 0.4981
-0.0230 -0.5570 0.4378
-0.1573 -0.5160 0.4836
-0.1687 -0.5383 0.3141
-0.0976 -0.5501 0.5783
0.0027 -0.5062 0.5298
-0.2023 -0.5238 0.4092
-0.4858 -0.5710 0.6670
-0.2096 -0.5322 0.2725
-0.2810 -0.5261 0.2911
-0.4798 -0.5712 0.4455
-0.3625 -0.5817 0.3149
-0.0399 -0.5246 0.6970
-0.1062 -0.4897 0.8252
-0.3287 -0.5309 0.2989
-0.4438 -0.5156 0.4350
-0.4121 -0.5499 0.3791
-0.5552 -0.5261 0.5571
-0.4058 -0.4910 0.4166
-0.5745 -0.5785 0.5672
-0.4634 -0.5790 0.4434
-0.5126 -0.5164 0.5613
-0.1823 -0.2161 0.2548
-0.2728 -0.5694 0.3354
-0.3307 -0.5242 0.4408
-0.0247 -0.5575 0.3795
-0.3694 -0.5699 0.5204
-0.2932 -0.5293 0.5408
-0.1785 -0.5196 0.5705
-0.3838 -0.5116 0.6783
-0.1230 -0.5330 0.4586
-0.2157 -0.5218 0.5106
-0.2387 -0.5662 0.5385
-0.4642 -0.5414 0.6029
-0.1936 -0.5148 0.7995
-0.2178 -0.5511 0.5637
-0.3690 -0.5345 0.6957
-0.4472 -0.5291 0.5357
-0.4723 -0.5874 0.4176
0.0495 -0.4992 0.4938
-0.3918 -0.5854 0.3129
-0.0407 -0.5636 0.4886
-0.3142 -0.4918 0.2716
-0.3442 -0.5600 0.2760
-0.3268 -0.5293 0.3374
0.0248 -0.5515 0.3634
-0.4832 -0.5762 0.7263
-0.3915 -0.5876 0.7305
-0.1530 -0.5629 0.4231
-0.1265 -0.5192 0.3956
-0.1209 -0.5702 0.3902
-0.1380 -0.5308 0.4956
-0.5999 -0.5277 0.5598
-0.1652 -0.4512 0.7474
-0.3394 -0.5199 0.5171
-0.3310 -0.5778 0.7252
-0.5672 -0.5141 0.5651
-0.1089 -0.5354 0.5852
-0.1020 -0.4261 0.3822
-0.1037 -0.4839 0.7587
-0.0420 -0.4921 0.3605
-0.4098 -0.5305 0.6824
-0.3452 -0.5697 0.3179
-0.2052 -0.5605 0.7598
-0.1615 -0.5325 0.6228
-0.1909 -0.2449 0.2899
0.0035 -0.5470 0.4183
-0.2056 -0.5346 0.2614
-0.0548 -0.5071 0.3487
-0.0547 -0.5017 0.3553
-0.0974 -0.4981 0.5302
-0.1838 -0.4775 0.5131
0.0127 -0.5009 0.4461
0.0159 -0.4855 0.4052
-0.0734 -0.5212 0.4284
-0.4275 -0.5248 0.6339
-0.0116 -0.4779 0.3572
-0.0446 -0.5372 0.4191
-0.0745 -0.5181 0.4160
-0.1203 -0.5387 0.4128
-0.2727 -0.5318 0.4717
-0.1682 -0.4951 0.3093
-0.2474 -0.5256 0.3325
-0.5070 -0.5074 0.5214
-0.2190 -0.5236 0.5662
-0.2382 -0.5251 0.5537
-0.1724 -0.4294 0.4640
-0.1209 -0.5603 0.6572
-0.3245 -0.5508 0.5895
-0.1866 -0.4949 0.3861
-0.1598 -0.5538 0.3814
0.0500 -1.2414 0.3891
-0.0341 -0.5048 0.3678
-0.1052 -0.5521 0.3045
-0.2400 -0.3122 0.2171
-0.0745 -0.5534 0.5018
-0.0020 -0.5679 0.4341
-0.0286 -0.5873 0.6919
-0.2839 -0.6206 0.2435
-0.0928 -0.1979 0.5028
-0.2197 -0.5573 0.8208
-0.2003 -0.5136 0.3693
0.1323 -0.6156 0.7888
-0.3893 -0.4515 0.4074
-0.3961 -0.5581 0.3036
-0.3572 -0.5212 0.2499
-0.5324 -0.6004 0.4289
-0.5139 -0.5857 0.4154
-0.5029 -0.5915 0.4111
-0.3485 -0.5574 0.2497
-0.6151 -0.5792 0.5839
-0.5696 -0.5777 0.6123
-0.5300 -0.5447 0.6575
-0.1372 -0.0658 0.3353
-0.4474 -0.5646 0.6872
-0.2190 -0.5878 0.3760
-0.4248 -0.5230 0.4804
-0.3947 -0.5734 0.7311
-0.2652 -0.5815 0.1976
-0.3848 -0.5280 0.3762
-0.1479 -0.5410 0.7594
-0.3348 -0.5719 0.6824
-0.1552 -0.0704 0.3314
-0.1257 -0.5560 0.5986
-0.3486 -0.5637 0.2363
-0.3055 -0.5639 0.2205
-0.5893 -0.5835 0.5566
-0.2400 -0.2294 0.3569
-0.1089 -0.0216 0.3394
-0.0820 -0.0200 0.3301
-0.1355 -0.5614 0.3733
-0.5016 -0.6110 0.4376
-0.2114 -0.5678 0.4135
-0.1349 -0.5583 0.3870
-0.1122 -0.5721 0.4010
-0.1491 -0.5620 0.6173
-0.0248 -0.5614 0.6586
-0.4789 -0.5789 0.3865
-0.0563 -0.5551 0.4921
-0.2056 -0.5595 0.3166
-0.3394 -0.5320 0.2933
-0.3482 -0.5713 0.4648
-0.3669 -0.5603 0.4795
-0.3016 -0.5278 0.2722
-0.1101 -0.0311 0.4070
-0.1728 -0.1972 0.3055
-0.2552 -0.5207 0.7527
-0.0280 -0.5847 0.7318
-0.2474 -0.5419 0.7864
-0.2032 -0.5064 0.2721
-0.0135 -0.5605 0.6851
-0.2811 -0.5790 0.8448
-0.6487 -0.5779 0.6104
-0.3381 -0.5381 0.3055
-0.0593 -0.4711 0.4494
-0.0658 -0.5481 0.4458
-0.0038 -0.5289 0.3942
-0.0823 -0.5314 0.4216
-0.0795 -0.5092 0.3717
-0.1803 -0.5540 0.3111
-0.0430 -0.5809 0.7644
-0.2087 -0.5581 0.8652
-0.1674 -0.5757 0.8741
-0.0017 -0.5043 0.5001
-0.2844 -0.5574 0.5618
-0.3467 -0.5204 0.4393
-0.5050 -0.5884 0.4841
-0.0960 -0.5186 0.5734
-0.1342 -0.0028 0.3335
-0.3238 -0.5379 0.7275
-0.2134 -0.5424 0.3629
-0.2889 -0.5781 0.2658
-0.3123 -0.5472 0.4175
-0.1907 -0.5631 0.2305
-0.1348 -0.0661 0.3244
-0.1866 -0.1954 0.4247
-0.2556 -0.1850 0.4338
-0.1694 -0.0954 0.3518
-0.1214 -0.0757 0.3768
-0.1150 -0.1530 0.3533
-0.1357 -0.0926 0.3128
-0.0856 -0.1698 0.3711
-0.1443 -0.0961 0.3259
-0.1573 -0.0591 0.3683
-0.0737 -0.0342 0.3419
-0.1328 -0.0818 0.4395
-0.0803 -0.0238 0.3489
-0.1097 0.0125 0.3341
-0.1225 -0.0121 0.3441
-0.0977 0.0100 0.3418

