0.4906 -1.1099 -0.6760
0.5132 -1.0672 -0.6061
0.6567 -1.1604 -1.2527
-0.1935 -1.1443 -0.1784
0.4298 -1.1455 -0.6813
0.4246 -1.1344 -0.9328
0.4114 -1.1191 -0.8629
0.3595 -1.1360 -0.6464
0.4081 -1.1131 -0.8996
0.5025 -1.1292 -0.8218
0.3052 -1.1124 -0.8214
0.1349 -1.1429 -0.6401
-0.1655 -1.0545 -0.2255
0.5681 -1.0437 -0.7029
0.0657 -1.0903 -0.1146
0.0364 -1.0863 -0.2252
0.3993 -1.1537 -0.9734
0.2237 -1.1711 -0.9312
0.3188 -1.1446 -0.7699
0.2777 -1.0992 -0.6513
0.0118 -1.1046 -0.2727
-0.1661 -1.1653 -0.3094
-0.1422 -1.1206 -0.6721
-0.1051 -1.0820 -0.2624
-0.1924 -1.1218 -0.3511
-0.2664 -1.1692 -0.2785
0.1492 -1.0488 -0.9209
0.4431 -1.1226 -0.6637
-0.2360 -1.0268 0.0476
-0.2039 -1.1133 0.0030
0.1849 -1.1244 -0.5230
0.4154 -1.1817 -0.9021
0.3948 -1.0969 -0.9236
0.0085 -1.1436 -0.7925
-0.1875 -1.1638 -0.3843
0.2671 -1.1060 -1.1492
0.3174 -1.1090 -1.0435
-0.2250 -1.1406 -0.0206
0.1477 -1.1263 -1.1279
-0.2340 -1.0774 -0.1600
0.3672 -1.1281 -0.6105
-0.2620 -1.0943 -0.0280
0.4366 -1.0982 -0.8702
-0.0085 -1.1160 -0.1549
-0.0238 -1.1462 -0.3570
0.1896 -1.0930 -0.7614
0.0902 -1.1444 -0.4731
0.0323 -1.1465 -0.3620
-0.0650 -1.1056 -0.1667
-0.1411 -1.0649 -0.2749
-0.0113 -1.2100 -1.0081
-0.0473 -1.1175 -0.8362
-0.0899 -1.1077 -0.8418
0.2270 -1.1298 -0.8855
0.6041 -1.1007 -0.8579
0.3145 -1.1424 -1.3481
0.3118 -1.1147 0.0446
-0.0712 -1.1293 -1.3278
-0.4517 -1.1293 -0.0439
-0.0252 -1.1126 -1.3661
-0.0568 -1.1313 -1.2599
0.1662 -1.1118 -0.2776
0.0793 -1.0969 -0.1583
0.1925 -1.1456 -0.4200
0.3049 -1.1438 -0.6874
0.2616 -1.1573 -0.6276
0.0480 -1.1019 -0.2160
-0.2996 -1.1473 -0.2556
0.3713 -1.1197 -1.0172
0.0011 -1.0862 -0.2074
-0.0878 -1.0740 -0.1674
-0.2178 -1.1705 -0.1661
0.4384 -1.1359 -0.0814
-0.4830 -1.1585 -0.1530
0.1956 -1.1202 -0.0529
-0.0875 -1.1416 -0.3972
-0.3283 -1.1573 -0.2426
0.3273 -1.1010 -0.8295
-0.1055 -1.0827 -0.1146
-0.4539 -1.1715 -0.1861
-0.1074 -1.0242 -1.1412
-0.2130 -1.1100 -0.8569
-0.4177 -1.0812 -0.0212
-0.1265 -1.0880 -0.6652
0.4833 -1.1115 -0.3402
-0.0827 -1.1598 -0.3315
0.0278 -0.3904 -0.1809
0.2175 -1.1293 -0.4861
0.1824 -1.1110 0.2322
-0.1984 -1.1915 -0.4005
-0.2147 -1.0886 -0.3539
0.0960 -1.1322 -0.2702
-0.0112 -1.1212 -0.5737
-0.2421 -1.1029 0.0562
0.4674 -1.1203 -0.6647
0.2697 -1.1234 0.0427
0.5138 -1.1057 -0.6296
0.4367 -1.1213 -0.4242
0.0906 -0.8290 0.0775
0.3973 -1.1339 -0.7776
0.3078 -1.1049 -0.6105
0.2073 -1.0674 0.1697
-0.0907 -1.1490 -0.3823
-0.0250 -1.1560 -0.5763
0.1112 -1.1264 -0.4822
0.1949 -1.1449 -1.0420
-0.5143 -1.2094 -0.2717
-0.0279 -1.2136 -0.5830
0.1496 -1.1528 -1.1083
0.2795 -1.1607 -1.0776
0.0950 -1.1740 -0.5015
0.1521 -1.2344 -0.3690
-0.5407 -1.1780 -0.2297
0.4113 -1.1271 -0.6448
0.4019 -1.1854 -0.5709
-0.2856 -0.6452 -0.6924
0.2550 -1.1391 -0.5996
0.1659 -1.1448 -0.4480
-0.0964 -1.1222 -0.7523
0.1444 -1.1467 -0.7207
0.3917 -1.2173 -0.4564
0.4476 -1.1549 -0.3934
-0.4423 -1.1957 -0.1170
-0.3931 -1.1490 -0.8982
0.0107 -1.1190 -0.6951
0.2322 -1.1409 -0.8272
0.3254 -1.1115 -0.9281
0.3897 -1.1374 -0.8138
0.2273 -1.0849 0.0433
-0.5061 -1.1358 -0.3684
-0.2810 -1.0952 -0.5596
-0.0369 -1.0953 -1.4728
-0.2028 -1.1018 -0.3741
-0.4202 -1.0858 -0.1724
-0.4855 -1.0630 -0.1059
-0.4592 -1.1066 -0.2791
0.3094 -1.1371 -1.0692
-0.4206 -1.0744 -0.2167
0.1466 -1.0760 -0.4629
-0.0709 -1.0934 -0.6957
-0.2991 -1.1045 -0.5166
0.2858 -1.1831 -0.5192
-0.2677 -1.1498 -0.3015
0.4066 -1.1839 -1.1062
0.2714 -1.1041 -0.6092
0.3479 -1.1793 -1.0688
0.3252 -1.1789 -1.1608
-0.5439 -1.0612 -0.3159
0.2198 -1.1054 -0.6207
0.1731 -1.0808 -0.8323
-0.3638 -1.0566 -0.4689
-0.5610 -1.1660 -0.8135
0.0969 -1.1615 -1.2608
0.2561 -1.1627 -0.2948
-0.4330 -1.1563 -0.1965
-0.3686 -1.1251 -0.2211
0.1787 -1.1477 -1.3327
0.1022 -1.1519 -0.5969
0.2606 -1.0648 -1.2970
-0.1298 -1.1387 -0.8915
-0.5980 -1.1253 -0.2852
-0.5708 -1.1216 -0.2250
-0.7173 -1.6571 0.0375
-0.6211 -1.1302 -0.7535
-0.5032 -1.1209 -0.3134
-0.5495 -1.2254 -0.7760
-0.4402 -1.1356 -0.8634
-0.2838 -1.1384 -0.2700
-0.2460 -1.1221 -0.2929
0.1975 -1.1050 -0.4388
-0.2400 -1.1373 -1.0187
-0.1856 -1.1121 -0.3784
0.2046 -1.1067 -0.9888
-0.1803 -0.4213 -0.4135
-0.1547 -1.0736 -0.3742
-0.1369 -1.1638 -0.2471
0.2277 -1.1450 -1.5789
-0.1104 -0.9937 -0.4719
-0.0676 -1.0982 -1.1141
-0.0400 -1.1450 -1.4847
-0.0431 -1.1190 -1.0472
0.0357 -1.1071 -0.5928
-0.1999 -1.1192 -0.9000
-0.1812 -1.1432 -0.3836
-0.0095 -1.1498 -1.2952
0.0250 -1.1363 -0.8019
0.1070 -1.1823 -1.3104
0.2062 -1.1503 -1.3104
0.1327 -1.0154 -0.3352
-0.7390 -1.1722 -0.6030
-0.7398 -1.1839 -0.5837
-0.6481 -1.2064 -0.3159
-0.7002 -1.1988 -0.6134
-0.6337 -1.0284 -0.6065
-0.6173 -1.1704 -0.3756
-0.4968 -1.1815 -0.3670
-0.6532 -0.9375 -0.6057
-0.7259 -1.0903 -0.7819
-0.7025 -1.2157 -0.5967
-0.6325 -1.2521 -0.2717
-0.6066 -1.1466 -0.5984
-0.2524 -1.0506 -0.8297
-0.6005 -1.1617 -0.5474
-0.2466 -1.1312 -0.8603
-0.1667 -1.1302 -0.3445
-0.7884 -0.9825 -0.4697
-0.7566 -0.8464 -0.6032
-0.8042 -0.9934 -0.5576
-0.6361 -0.4687 -0.8187
-0.2977 -0.4770 -1.0401
-0.7712 -0.9766 -0.4800
-0.6059 -0.4823 -0.8627
-0.3251 -0.4816 -1.0517
-0.3062 -0.4284 -1.1394
-0.3473 -0.5008 -1.2740
-0.3642 -0.4149 -1.1779
-0.4002 -0.4261 -1.1715
-0.4362 -0.4323 -1.1587
-0.9359 -0.4216 -1.0523
-0.4443 -0.4409 -1.1391
-0.8929 -0.4518 -0.9738
-0.5009 -0.4531 -1.0555
-0.9174 -0.4397 -1.0482
-0.4459 -0.2653 -0.9049
-0.4940 -0.2719 -0.9040
-0.7974 -0.4595 -0.8938
-0.5982 -0.4373 -1.0195
-0.8876 -0.4337 -1.0776
-0.5451 -0.4490 -0.8572
-0.7189 -0.4440 -1.0646
-0.6782 -0.4555 -0.7901
-0.6976 -0.4562 -0.9456
-0.7731 -0.4372 -1.0767
-0.7180 -0.4569 -0.9395
-0.8070 -0.4386 -1.0624
-0.6428 -0.4581 -0.8150
-0.3342 -0.4512 -1.0369
-0.4104 -0.7127 -1.3367
-0.9256 -0.4408 -1.0225
-0.7806 -0.4614 -0.9705
-0.9305 -0.4269 -1.0702
-0.5746 -0.4529 -1.1064
-0.8881 -0.4418 -1.0446
-0.6023 -0.4485 -1.1105
-0.8316 -0.4752 -0.9508
-0.6234 -0.4594 -1.0618
-0.6265 -0.4566 -1.0323
-0.8475 -0.4395 -1.0391
-0.6862 -0.4928 -1.0394
-0.3005 -0.2547 -0.8178
-0.3884 -0.4273 -1.1539
-0.7856 -0.4518 -0.9297
-0.8157 -0.4584 -0.8807
-0.8002 -0.4904 -0.9252
-0.7222 -0.4555 -0.8182
-0.8222 -1.0459 -0.5799
-0.6836 -0.4792 -0.8333
-0.6607 -0.4907 -0.8442
-0.6186 -0.4557 -0.8481
-0.5980 -0.4540 -0.8585
-0.5555 -0.4020 -0.8399
-0.5856 -0.4703 -0.8773
-0.5787 -0.4574 -0.9586
-0.5438 -0.4618 -0.8945
-0.4682 -0.3715 -0.8003
-0.5183 -0.4501 -0.8996
-0.5075 -0.4737 -0.9242
-0.4997 -0.4735 -0.9580
-0.5100 -0.4490 -1.0776
-0.4566 -0.4707 -0.9804
-0.4401 -0.4883 -0.9425
-0.4222 -0.4744 -0.9763
-0.4167 -0.4546 -1.0489
-0.3786 -0.4542 -1.0705
-0.3949 -0.4376 -1.1310
-0.3712 -0.4450 -1.0931
-0.3768 -0.4409 -1.1462
-0.3288 -0.4497 -0.9823
-0.3145 -0.3704 -0.9465
-0.3159 -0.3787 -1.0070
-0.3088 -0.4756 -1.1023
-0.3005 -0.4397 -1.1000
-0.6254 -0.5042 -1.3331
-0.9306 -0.4434 -1.0642
-0.9195 -0.4386 -1.0893
-0.9496 -0.4814 -1.1095
-0.7159 -0.5125 -1.2218
-0.4230 -0.4916 -1.3963
-0.4259 -0.4943 -1.1812
-0.7228 -0.4653 -0.9838
-0.4049 -0.3819 -1.1119
-0.8345 -0.4915 -1.1496
-0.6168 -0.5006 -1.3631
-0.7481 -0.3284 -0.8778
-0.6140 -0.4769 -1.2247
-0.3735 -0.5009 -1.3178
-0.3952 -0.4834 -1.3362
-0.8546 -0.4970 -1.1531
-0.3861 -0.3846 -1.0805
-0.7819 -0.4996 -1.2407
-0.6800 -0.5141 -1.2958
-1.0016 -0.4703 -1.0842
-0.6351 -0.4795 -1.2157
-0.6688 -0.4134 -1.1358
-0.5946 -0.3786 -1.0780
-0.4454 -0.4850 -1.4340
-0.6413 -0.5006 -1.2952
-0.6767 -0.4774 -1.2391
-0.6788 -0.4753 -1.2859
-0.9090 -0.4865 -0.9775
-0.7807 -0.8739 -0.6292
-0.6216 -0.3632 -0.7133
-0.7028 -0.3696 -0.8489
-0.7232 -0.5083 -0.8204
-0.5823 -0.4777 -0.9157
-0.4866 -0.3592 -0.8004
-0.5611 -0.4754 -0.9253
-0.5150 -0.4697 -0.8898
-0.4960 -0.4751 -0.9034
-0.4243 -0.3559 -0.7893
-0.4777 -0.4697 -0.9660
-0.4265 -0.4686 -1.0266
-0.3752 -0.3775 -0.9217
-0.3744 -0.4694 -1.0287
-0.3628 -0.4769 -1.0136
-0.3549 -0.4797 -1.0464
-0.3144 -0.3709 -0.8895
-0.3154 -0.4735 -1.0666
-0.2938 -0.3703 -0.8733
-0.2917 -0.4828 -1.0313
-0.3400 -0.4119 -1.1007
-0.2966 -0.4870 -1.0907
-0.0848 -1.1608 -1.2447
-0.0970 -1.1564 -1.2418
-0.6678 -0.4890 -1.3968
-0.6152 -0.1083 -1.0493
-0.5646 -0.4973 -1.4290
-0.5443 -0.4753 -1.4425
-0.5926 -0.5039 -1.4587
-0.5792 -0.4975 -1.3446
-0.5809 -0.4753 -1.2149
-0.6037 -0.4620 -1.2451
-0.6389 -0.4668 -1.0871
-0.8527 -0.4947 -1.1883
-0.8867 -0.5013 -1.2064
-0.9712 -0.4771 -1.1120
-0.9897 -0.4658 -1.0615
-0.5446 -0.4821 -1.2442
-1.0207 -0.4483 -1.1264
-0.8337 -0.3955 -0.9304
-0.4528 -0.4869 -1.4014
-0.9287 -0.4709 -1.0268
-0.8850 -0.4832 -0.9862
-0.5944 -0.4845 -1.2807
-0.6230 -0.4800 -1.3179
-0.4715 -0.3787 -1.0893
-0.5561 -0.4917 -1.3497
-0.4739 -0.4880 -1.3911
-0.6359 -0.4716 -1.2478
-0.6553 -0.4857 -1.2907
-0.8023 -0.4712 -0.9934
-0.4807 -0.4917 -1.3581
-0.5088 -0.4917 -1.4063
-1.0184 -0.4618 -1.0351
-0.5310 -0.3276 -0.9623
-0.6543 -0.4788 -1.2042
-1.0048 -0.4521 -1.0585
-0.5803 -0.3429 -1.0483
-0.5598 -0.4856 -1.3984
-0.7650 -0.4708 -1.0174
-1.0724 -0.8166 -1.3578
-0.3698 -0.1525 -0.8076
-0.8765 -0.4901 -1.1604
-0.6857 -0.4802 -1.2144
-0.5362 -0.4925 -1.3624
-1.0441 -0.4622 -1.0758
-0.8198 -0.4921 -1.1760
-0.8249 -0.4839 -1.1868
-0.5163 -0.4934 -1.3748
-0.6876 -0.4632 -1.0030
-0.7850 -0.4697 -1.2382
-0.6655 -0.4635 -0.9711
-0.4756 -0.4843 -1.2599
-0.4891 -0.4881 -1.2849
-0.7866 -0.4837 -1.2089
-0.7511 -0.4804 -1.1517
-1.0650 -0.4583 -1.1126
-0.4960 -0.3885 -1.2386
-0.9720 -0.4668 -1.1223
-0.5482 -0.3303 -0.9932
-0.7065 -0.4667 -0.9940
-0.7036 -0.4659 -0.9516
-0.7254 -0.4864 -1.2773
-0.6105 -0.4581 -1.0415
-0.8157 -0.4953 -1.1191
-0.7675 -0.4733 -1.0512
-0.4382 -0.3301 -0.9587
-0.3689 -0.4804 -1.1612
-0.7458 -0.4839 -1.1849
-0.9961 -0.4705 -1.1161
-0.5201 -0.4860 -1.4212
-0.4993 -0.5156 -1.4621
-0.9587 -0.4759 -1.0207
-0.7842 -0.3161 -0.8775
-0.8022 -0.8597 -0.5879
-0.7468 -0.4742 -0.7604
-0.8097 -0.4764 -0.9027
-0.7435 -0.4675 -0.8453
-0.6830 -0.4643 -0.7932
-0.6219 -0.3268 -0.7913
-0.7026 -0.4660 -0.8688
-0.6386 -0.4858 -0.8103
-0.6619 -0.4632 -0.8599
-0.6395 -0.4594 -0.8276
-0.6375 -0.4688 -0.8757
-0.6226 -0.4641 -0.8515
-0.6386 -0.5182 -0.8417
-0.5090 -0.1938 -0.7627
-0.5433 -0.3240 -0.8085
-0.6160 -0.4677 -0.8859
-0.6273 -0.4673 -0.9961
-0.4623 -0.1938 -0.7739
-0.5891 -0.4700 -1.0208
-0.4819 -0.3288 -0.8254
-0.5285 -0.4707 -1.0553
-0.5155 -0.4705 -1.0329
-0.4304 -0.3285 -0.8323
-0.4682 -0.4675 -1.0005
-0.4790 -0.4768 -1.1279
-0.5213 -0.9159 -1.4237
-0.4068 -0.4678 -1.0374
-0.3689 -0.4763 -0.9792
-0.4403 -0.4754 -1.1494
-0.4217 -0.4833 -1.1684
-0.3454 -0.3308 -0.8830
-0.3695 -0.3828 -1.0551
-0.3353 -0.4712 -1.0531
-0.3280 -0.3395 -0.9194
-0.3186 -0.3345 -0.9011
-0.2906 -0.3357 -0.9176
-0.4871 -0.4959 -1.4774
-0.5948 -0.4208 -1.3187
-0.6269 -0.4975 -1.3781
-0.6485 -0.4911 -1.4111
-0.5863 -0.4708 -1.4422
-0.5348 -0.4897 -1.4481
-0.8789 -0.4956 -1.2311
-0.8684 -0.4915 -1.2576
-0.8682 -0.5185 -1.2723
-0.6201 -0.4717 -1.4249
-0.9237 -0.4762 -1.1973
-0.6096 -0.4924 -1.4400
-0.8108 -0.4851 -1.3344
-1.0174 -0.4687 -1.1556
-0.5202 -0.5160 -1.5428
-0.9988 -0.4645 -0.9767
-0.5847 -0.4775 -1.1269
-0.6290 -0.6739 -1.3821
-0.5414 -0.3495 -0.9520
-0.4591 -0.4906 -1.3629
-0.6451 -0.4659 -1.0553
-0.9441 -0.4638 -0.9249
-0.4066 -0.4815 -1.2689
-0.4844 -0.4737 -1.1851
-0.5028 -0.3493 -1.0585
-0.6205 -0.4510 -0.9843
-0.5621 -0.4723 -1.2150
-0.8361 -0.4576 -0.9277
-0.8833 -0.4654 -0.9951
-0.5263 -0.3490 -0.9597
-0.9686 -0.4652 -0.9671
-0.5247 -0.3947 -1.1579
-0.5725 -0.3442 -0.9104
-0.4636 -0.4845 -1.3239
-0.4172 -0.4796 -1.2032
-0.7876 -0.4734 -1.0856
-0.6508 -0.4741 -0.9890
-0.5404 -0.4696 -1.1470
-0.8900 -0.3781 -0.9261
-0.6572 -0.4494 -0.9625
-0.7791 -0.4563 -0.9633
-0.8760 -0.4641 -0.8497
-0.6918 -0.3441 -0.7213
-0.6996 -0.3910 -0.7498
-0.5113 -0.1148 -0.6929
-0.7341 -0.4665 -0.7901
-0.6914 -0.3859 -0.7766
-0.6396 -0.3393 -0.8379
-0.5821 -0.4618 -0.8729
-0.5888 -0.5234 -0.8981
-0.4987 -0.3749 -0.7858
-0.5328 -0.4652 -0.8765
-0.5151 -0.4730 -0.8889
-0.5610 -0.4778 -1.0772
-0.4976 -0.4666 -0.9529
-0.4737 -0.4663 -0.9102
-0.4640 -0.4634 -0.9403
-0.4700 -0.5301 -0.9388
-0.4959 -0.4650 -1.1057
-0.4862 -0.4720 -1.0829
-0.4383 -0.3562 -0.9398
-0.4210 -0.4714 -0.9724
-0.4220 -0.5242 -0.9679
-0.4593 -0.4740 -1.1367
-0.4003 -0.4668 -0.9821
-0.3887 -0.4768 -0.9662
-0.3804 -0.4700 -0.9957
-0.3490 -0.4762 -0.9906
-0.3833 -0.3653 -1.0306
-0.3873 -0.4706 -1.1413
-0.3054 -0.3783 -0.9407
-0.7134 -0.4902 -1.3473
-0.4207 -0.4900 -1.3880
-0.8264 -1.0085 -1.5765
-0.7098 -0.4775 -1.2948
-0.7371 -0.4827 -1.3422
-0.7374 -0.8666 -1.6931
-0.5887 -0.4305 -1.2826
-0.5750 -0.4018 -1.2754
-0.6466 -0.7834 -1.7517
-0.6392 -0.4834 -1.3465
-0.8032 -0.4757 -1.2402
-0.9276 -0.4706 -1.1274
-0.9807 -0.4705 -1.0940
-0.6243 -0.5180 -1.4827
-0.4656 -0.7230 -1.4857
-0.9480 -0.3749 -1.0452
-0.4999 -0.4896 -1.4347
-1.0405 -0.4658 -1.1097
-1.0306 -0.4680 -1.0913
-0.9199 -0.4777 -1.2302
-0.5764 -0.4728 -1.4501
-0.6559 -0.4737 -1.4161
-0.4896 -0.4846 -1.4597
-0.8803 -0.4690 -1.2113
-0.9892 -0.4565 -0.9998
-0.9186 -0.3650 -0.9782
-0.5162 -0.4719 -1.2769
-1.0072 -0.4542 -1.0620
-0.4967 -0.3891 -1.1442
-0.5902 -0.4834 -1.4003
-0.5461 -0.3825 -1.2152
-0.9666 -0.4675 -1.0714
-0.5971 -0.4195 -1.2910
-0.8872 -0.4538 -1.0088
-0.6288 -0.4733 -1.3707
-0.9139 -0.4626 -1.0740
-0.8443 -0.4556 -0.9803
-0.9310 -0.4687 -1.0950
-0.7520 -0.3707 -0.9290
-0.8705 -0.4693 -1.0620
-0.8180 -0.4542 -1.0238
-0.6601 -0.4771 -1.2975
-0.5568 -0.3834 -1.0544
-0.6076 -0.4777 -1.1661
-0.6479 -0.4551 -1.2329
-0.7916 -0.3628 -1.0739
-0.6631 -0.4126 -1.2456
-0.7976 -0.4594 -1.0723
-0.5732 -0.3831 -1.0450
-0.6360 -0.4658 -1.1701
-0.6598 -0.4665 -1.2106
-0.6841 -0.4751 -1.2513
-0.8745 -0.5175 -1.1837
-0.6773 -0.4644 -0.9890
-0.7335 -0.4617 -1.0827
-0.7727 -0.4461 -1.1528
-0.7557 -0.4460 -1.1267
-0.6815 -0.4745 -1.1997
-0.7271 -0.4608 -1.1131
-0.7106 -0.4648 -1.1267
-0.6432 -0.3760 -1.0219
-0.7208 -0.4610 -1.1444
-0.7247 -0.4616 -1.1904
-0.7034 -0.4624 -1.1560
-0.9905 -0.4494 -1.0388
-0.8961 -0.4523 -0.9428
-1.0039 -0.4578 -1.0156
-0.9035 -0.4544 -0.9110
-0.9408 -0.4521 -0.9723
-0.6588 -0.4664 -1.0013
-0.5102 -0.3544 -1.1440
-0.9483 -0.4540 -1.0466
-0.7033 -0.3908 -0.7240
-0.7451 -0.4626 -0.7321
-0.8359 -0.4539 -0.8363
-0.7679 -0.4588 -0.7653
-0.7793 -0.4555 -0.7851
-0.7184 -0.4587 -0.7690
-0.6682 -0.3957 -0.7712
-0.6754 -0.3784 -0.8309
-0.6959 -0.4541 -0.8641
-0.6600 -0.4607 -0.8594
-0.6770 -0.4732 -0.8846
-0.6299 -0.4732 -0.9089
-0.5522 -0.4648 -0.8651
-0.5511 -0.4880 -0.9017
-0.5207 -0.4818 -0.9471
-0.5049 -0.4646 -0.9184
-0.4695 -0.4738 -1.0017
-0.4655 -0.4813 -0.9824
-0.9420 -0.4790 -1.2227
-0.7052 -0.4728 -1.2425
-0.4451 -1.0090 -1.8576
-0.5499 -0.4971 -1.4970
-0.5548 -0.4714 -1.4683
-0.7279 -0.4917 -1.3654
-0.9661 -0.5054 -1.2612
-0.7542 -0.5089 -1.3901
-0.9287 -0.4985 -1.2684
-0.7500 -0.4684 -1.3106
-0.7936 -0.5098 -1.3667
-0.7972 -0.4699 -1.2584
-0.5400 -0.5152 -1.5291
-0.8493 -0.4747 -1.3178
-1.0298 -0.4702 -1.1742
-0.7391 -0.4649 -1.3684
-0.9437 -0.5027 -1.2915
-0.7424 -0.5126 -1.4047
-0.9566 -0.4687 -1.2175
-0.6872 -0.4676 -1.3766
-0.7248 -0.4752 -1.3164
-0.7368 -0.4728 -1.1659
-0.7593 -0.4541 -1.1658
-0.8596 -0.4671 -1.1716
-0.8628 -0.4716 -1.1379
-0.8888 -0.3957 -1.1395
-0.5443 -0.4748 -1.3631
-0.9355 -0.4394 -1.1097
-0.9767 -0.4707 -1.1590
-0.6720 -0.4703 -1.3890
-0.6087 -0.4481 -1.2131
-0.6285 -0.4719 -1.2309
-0.6573 -0.4779 -1.1940
-0.6727 -0.4715 -1.2250
-0.8317 -0.4071 -1.1139
-0.6913 -0.4713 -1.2141
-0.6964 -0.4080 -1.2192
-0.7067 -0.4065 -1.2365
-0.6752 -0.4659 -1.1483
-0.7155 -0.4731 -1.2042
-0.7713 -0.4724 -1.0997
-0.8166 -0.4724 -1.1740
-0.8041 -0.4714 -1.1540
-0.8239 -0.5135 -1.1559
-0.8099 -0.4711 -1.2886
-0.7786 -0.4762 -1.1465
-0.7556 -0.4743 -1.1562
-0.7766 -0.4731 -1.1900
-0.4766 -0.4674 -1.3304
-0.4447 -0.4738 -1.4200
-0.4133 -0.4663 -1.3056
-0.4843 -0.4713 -1.3934
-0.4513 -0.4671 -1.3777
-0.7660 -0.4734 -1.0492
-0.6083 -0.4779 -1.0352
-0.5308 -0.4734 -1.3396
-0.4354 -0.4931 -1.3822
-0.7526 -0.4689 -0.9524
-0.7345 -0.4224 -0.9405
-0.6070 -0.4701 -1.4015
-0.9085 -0.5005 -1.1139
-0.7001 -0.5053 -1.3896
-0.8679 -0.4137 -1.0315
-0.5555 -0.4776 -1.1738
-0.9264 -0.4670 -1.0545
-0.5886 -0.4616 -1.2465
-0.9409 -0.4663 -1.0670
-0.8038 -0.4803 -0.8443
-0.7491 -0.4774 -0.8464
-0.6671 -0.4732 -0.8075
-0.8681 -0.4664 -1.1004
-0.8452 -0.4601 -1.1087
-0.7052 -0.4713 -0.9275
-0.6679 -0.4818 -0.9210
-0.6564 -0.4841 -0.8995
-0.6403 -0.4634 -0.9273
-0.6067 -0.4819 -0.8495
-0.6866 -0.5197 -0.9669
-0.5863 -0.4665 -0.8830
-0.5925 -0.4747 -0.9325
-0.5685 -0.4604 -0.9378
-0.5396 -0.4838 -0.8808
-0.5511 -0.4679 -0.9524
-0.5201 -0.4225 -0.9412
-0.4989 -0.4813 -0.9027
-0.5223 -0.4628 -0.9941
-0.4842 -0.4906 -0.9170
-0.5029 -0.4690 -1.0089
-0.4910 -0.4765 -0.9910
-0.4650 -0.4692 -0.9430
-0.4532 -0.4682 -1.0698
-0.4405 -0.4743 -1.0507
-0.4265 -0.4688 -1.0274
-0.4035 -0.4823 -1.0202
-0.4117 -0.4226 -1.0609
-0.3885 -0.4646 -1.0472
-0.3821 -0.4638 -1.0799
-0.3502 -0.4670 -1.0724
-0.8452 -0.4933 -1.3036
-0.7796 -0.4464 -1.2832
-0.9130 -0.4998 -1.2788
-0.8501 -0.5200 -1.3726
-0.8707 -0.4644 -1.2608
-0.4099 -0.4547 -1.3259
-0.4413 -0.4956 -1.3456
-0.4409 -0.4791 -1.3950
-0.8977 -0.4592 -1.0849
-0.8619 -0.4237 -1.0663
-0.7834 -0.4738 -0.9537
-0.7498 -0.4864 -0.9668
-0.7460 -0.4750 -0.9766
-0.7180 -0.4736 -0.9722
-0.8300 -0.4736 -1.1281
-0.7904 -0.4417 -1.1811
-0.7801 -0.4441 -1.1634
-0.7337 -0.4433 -1.1658
-0.7460 -0.4969 -1.2093
-0.7068 -0.4415 -1.1661
-0.7219 -0.5019 -1.2546
-0.6012 -0.4840 -1.0682
-0.5994 -0.4767 -1.2279
-0.4854 -0.4713 -1.3269
-0.6083 -0.4936 -1.2831
-0.5937 -0.4949 -1.2925
-0.5602 -0.4468 -1.2510
-0.5509 -0.4554 -1.2385
-0.4779 -0.4772 -1.1163
-0.4668 -0.4635 -1.2705
-0.4905 -0.4657 -1.2300
-0.5376 -0.4889 -1.3232
-0.6729 -0.5034 -0.8784
-0.3926 -0.4778 -1.3010
-0.4454 -0.4838 -0.9527
-0.6922 -0.4861 -0.8783
-0.3534 -0.4685 -1.2070
-0.3523 -0.4794 -1.2200
-0.3327 -0.5062 -1.2248
-0.7506 -0.4595 -0.9066
-0.7347 -0.4672 -0.9206
-0.8385 -0.4805 -1.1279
-0.8019 -0.4525 -1.0929
-0.7322 -0.4753 -0.9866
-0.6898 -0.4749 -0.9646
-0.6753 -0.4703 -0.9406
-0.7015 -0.4793 -1.0091
-0.6316 -0.4835 -0.8914
-0.6436 -0.4776 -0.9649
-0.5888 -0.4909 -0.8619
-0.6682 -0.4903 -1.0342
-0.6279 -0.4572 -1.0019
-0.5881 -0.4853 -0.9124
-0.5576 -0.4936 -0.8716
-0.6359 -0.5060 -1.0214
-0.6173 -0.4722 -1.0506
-0.6035 -0.4921 -1.0276
-0.4990 -0.4810 -0.9581
-0.4791 -0.4918 -0.9735
-0.5066 -0.4688 -1.0678
-0.4954 -0.4728 -1.0471
-0.4955 -0.4806 -1.0830
-0.4355 -0.5191 -0.9878
-0.4595 -0.5125 -1.1596
-0.4687 -0.5161 -1.1262
-0.4332 -0.4815 -1.0895
-0.4038 -0.5099 -0.9764
-0.4615 -0.5132 -1.1657
-0.3940 -0.5172 -1.0122
-0.3806 -0.5221 -0.9926
-0.3766 -0.4838 -1.0115
-0.4029 -0.5027 -1.1567
-0.3906 -0.4790 -1.1188
-0.3400 -0.4884 -1.0055
-0.3342 -0.5127 -1.0477
-0.3310 -0.4728 -1.0105
-0.3491 -0.5029 -1.1581
-0.3342 -0.4754 -1.0647
-0.3593 -0.4598 -1.1808
-0.3286 -0.4688 -1.1881
-0.3090 -0.4727 -1.0744
-0.3280 -0.4727 -1.1837
-0.9461 -0.4513 -1.2402
-0.5269 -0.4859 -1.3886
-1.0105 -0.4513 -1.1107
-0.9497 -0.4965 -1.2236
-0.4668 -0.4763 -1.4345
-0.9069 -0.5233 -1.2849
-0.8812 -0.5046 -1.2827
-0.8208 -0.4699 -1.2169
-0.8808 -0.5215 -1.3288
-0.8351 -0.5029 -1.2727
-0.8512 -0.4989 -1.3426
-0.7981 -0.4283 -1.2762
-0.8023 -0.4676 -1.3074
-0.7720 -0.4672 -1.2986
-0.7673 -0.4490 -1.3443
-0.7433 -0.4594 -1.3447
-0.5511 -0.5209 -1.5555
-0.5069 -0.4567 -1.4261
-0.6387 -0.4639 -1.3819
-0.6494 -0.4701 -1.4299
-0.6404 -0.4742 -1.4154
-0.5987 -0.4411 -1.4388
-0.7485 -0.4784 -1.3934
-0.8711 -0.4199 -1.2457
-0.5646 -0.5001 -1.5225
-0.8598 -0.4577 -1.2849
-0.6009 -0.4951 -1.4919
-0.7948 -0.4660 -1.3363
-0.7859 -0.5098 -1.3993
-0.5320 -0.5233 -1.5716
-0.9106 -0.4861 -1.1237
-0.6314 -0.4376 -1.0035
-0.7662 -0.4902 -0.9608
-0.7576 -0.4472 -0.9368
-0.6169 -0.4521 -1.0171
-0.6709 -0.4434 -0.9807
-0.5143 -0.4645 -1.1059
-0.3867 -0.4525 -1.0063
-0.2614 -0.4501 -1.0713
-0.1758 -0.7961 -1.3283
-0.3162 -0.4723 -1.1014
-0.6713 -0.5226 -0.8604
-0.6663 -0.4461 -0.8344
-0.6458 -0.4324 -0.8272
-0.6104 -0.2312 -0.8527
-0.5361 -0.0609 -0.8015
-0.5039 -0.4446 -0.8759
-0.2867 -0.4349 -1.1298
-0.3131 -0.4800 -1.1984
-0.2441 -0.8630 -1.5834
-0.6474 -0.4392 -0.7969
-0.7067 -0.4968 -0.7999
-0.6940 -0.4331 -0.8332
-0.7874 -0.4862 -0.9449
-0.6764 -0.4786 -0.8131
-0.7001 -0.4325 -0.8843
-0.6855 -0.4277 -0.8651
-0.8343 -0.4486 -1.1030
-0.7805 -0.4862 -0.9875
-0.7675 -0.5027 -1.0077
-0.7525 -0.5097 -1.0292
-0.7102 -0.4892 -1.0630
-0.5891 -0.4395 -0.8932
-0.6097 -0.4879 -0.9914
-0.5775 -0.4427 -0.9554
-0.5404 -0.4860 -0.9143
-0.5892 -0.5042 -1.0439
-0.5384 -0.4460 -0.9811
-0.5387 -0.5190 -0.9562
-0.5632 -0.4889 -1.0492
-0.5349 -0.4687 -1.0197
-0.5041 -0.5213 -0.9458
-0.5543 -0.4951 -1.0930
-0.5477 -0.5029 -1.0671
-0.5162 -0.4742 -1.0342
-0.5259 -0.4534 -1.1201
-0.5093 -0.4563 -1.1282
-0.4734 -0.4537 -1.0505
-0.4479 -0.5167 -1.1394
-0.4486 -0.4659 -1.1994
-0.3874 -0.5136 -1.0467
-0.4181 -0.4947 -1.1780
-0.3543 -0.5119 -1.0352
-0.2345 -1.1049 -1.4964
-0.3468 -0.4769 -1.0862
-0.3186 -0.4856 -1.0473
-0.3251 -0.4829 -1.1020
-0.2983 -0.4568 -1.0178
-0.3317 -0.4787 -1.1542
-0.3194 -0.4789 -1.1326
-0.2985 -0.4481 -1.0971
-0.2965 -0.4387 -1.0395
-0.2836 -0.4455 -1.0233
-0.2888 -0.4583 -1.1360
-0.2856 -0.4500 -1.0776
-0.2787 -0.4526 -1.1115
-0.2722 -0.4387 -1.0561
-0.2768 -0.4254 -1.0750
-0.2613 -0.4529 -1.0389
-0.8912 -0.4505 -1.1911
-1.0478 -0.4497 -1.0889
-0.4092 -0.4807 -1.3222
-0.4019 -0.4992 -1.2867
-0.4275 -0.4801 -1.3094
-0.5248 -0.4857 -1.3509
-0.5446 -0.4967 -1.3499
-0.8854 -0.4948 -1.2339
-0.8998 -0.4982 -1.2569
-0.8313 -0.4959 -1.1825
-0.8487 -0.4665 -1.3156
-0.7394 -0.4981 -1.2402
-0.7042 -0.5080 -1.4439
-0.6638 -0.4970 -1.2856
-0.6819 -0.5174 -1.3540
-0.5847 -0.5009 -1.5097
-0.7153 -0.4948 -1.2020
-1.0203 -0.5329 -1.3082
-0.4748 -0.4969 -1.3610
-0.4397 -0.4731 -1.3597
-0.7753 -0.5067 -0.9589
-0.9605 -1.3221 -0.9390
-0.5715 -0.1267 -0.8608
-0.6800 -0.5032 -0.9001
-0.6976 -0.4780 -1.1458
-0.5478 -0.4670 -1.1962
-0.4495 -0.4563 -1.2760
-0.3925 -0.4816 -1.1484
-0.4307 -0.4690 -1.2974
-0.4063 -0.4360 -1.3396
-0.3110 -0.4947 -1.2395
-0.2781 -0.4891 -1.1878
-0.8213 -0.4938 -0.9643
-0.7699 -0.5119 -0.9075
-0.7424 -0.5143 -0.8619
-0.8042 -0.5029 -0.9791
-0.7497 -0.5143 -0.9210
-0.7068 -0.5156 -0.8520
-0.8491 -0.4912 -1.0991
-0.8411 -0.5015 -1.0818
-0.8051 -0.4860 -1.0304
-0.8262 -0.4911 -1.1132
-0.7811 -0.4857 -1.0471
-0.7799 -0.4719 -1.0240
-0.7306 -0.5004 -0.9780
-0.7531 -0.4846 -1.0628
-0.7528 -0.4600 -1.0373
-0.7305 -0.4624 -1.0002
-0.6620 -0.5089 -0.9034
-0.7337 -0.4865 -1.0742
-0.7087 -0.4853 -1.0310
-0.6875 -0.4943 -0.9997
-0.7215 -0.4725 -1.1001
-0.6905 -0.4883 -1.0430
-0.6718 -0.5007 -0.9955
-0.6302 -0.5000 -0.9479
-0.7109 -0.5115 -1.0841
-0.6686 -0.4813 -1.0514
-0.5929 -0.5133 -0.8811
-0.6430 -0.4798 -1.0191
-0.6479 -0.5093 -1.0414
-0.6407 -0.4748 -1.0915
-0.6538 -0.5149 -1.0858
-0.5494 -0.5077 -0.9044
-0.6767 -0.4940 -1.1980
-0.5993 -0.4736 -1.0418
-0.6114 -0.4794 -1.0830
-0.6247 -0.4671 -1.0626
-0.5539 -0.4943 -0.9594
-0.5351 -0.5200 -0.9001
-0.5778 -0.5117 -1.0224
-0.5328 -0.4887 -0.9698
-0.5960 -0.4786 -1.1468
-0.5141 -0.5357 -0.9150
-0.5833 -0.5014 -1.1469
-0.5525 -0.4802 -1.1172
-0.5086 -0.5112 -1.0015
-0.5067 -0.4917 -1.0775
-0.5666 -0.4528 -1.2610
-0.4683 -0.4853 -1.0071
-0.5519 -0.4951 -1.3126
-0.5013 -1.2073 -1.6694
-0.4378 -0.4909 -1.0578
-0.5121 -0.4557 -1.2973
-0.4555 -0.4775 -1.1341
-0.4631 -0.4722 -1.1956
-0.4112 -0.4874 -1.0123
-0.4151 -0.5163 -0.9994
-0.4243 -0.4995 -1.1416
-0.3926 -0.4817 -1.1121
-0.3828 -0.5023 -1.1682
-0.3442 -0.4911 -1.0865
-0.2622 -1.1684 -1.7928
-0.3412 -0.4741 -1.1101
-0.1994 -1.1398 -1.7539
-0.3171 -0.4863 -1.1291
-0.2933 -0.4789 -1.1717
-0.6792 -0.5191 -0.8487
-0.9588 -0.5260 -1.2554
-0.8970 -0.4814 -1.1970
-0.7337 -0.4689 -1.3304
-0.7183 -0.4823 -1.3909
-0.6670 -0.5204 -1.2831
-0.7055 -0.5163 -1.4313
-0.6829 -0.5006 -1.3950
-0.6123 -0.5031 -1.4457
-0.5613 -0.5011 -1.4682
-0.5207 -0.5155 -1.4493
-0.5015 -0.4974 -1.5002
-0.4862 -0.5136 -1.4373
-0.4498 -0.4724 -1.3873
-0.8347 -0.5208 -1.2091
-0.8944 -0.4815 -1.0860
-0.9587 -0.4824 -1.2100
-0.9439 -0.5057 -1.2156
-0.6523 -0.4507 -0.7991
-0.5823 -0.1471 -0.8749
-0.9103 -0.5005 -1.2891
-0.8001 -0.4701 -1.1547
-0.8474 -0.5194 -1.3174
-0.7965 -0.4798 -1.3076
-0.6453 -0.4764 -1.0161
-0.7997 -0.4792 -1.3578
-0.8079 -0.5156 -1.3377
-0.7624 -0.4795 -1.2964
-0.6835 -0.4809 -1.2093
-0.6683 -0.4746 -1.1862
-0.7244 -0.4793 -1.3185
-0.5087 -0.4899 -0.8816
-0.6442 -0.4837 -1.2334
-0.6952 -0.5170 -1.3764
-0.6083 -0.4754 -1.3816
-0.3803 -0.4851 -0.9559
-0.4618 -0.4752 -1.3112
-0.4429 -0.4784 -1.4234
-0.4307 -0.4682 -1.4231
-0.8952 -0.4832 -1.0943
-0.8615 -0.4716 -1.0443
-0.8847 -0.4342 -1.0885
-0.7079 -0.4659 -0.8382
-0.7477 -0.4780 -0.9377
-0.7287 -0.4842 -0.9508
-0.7517 -0.4718 -0.9905
-0.7870 -0.4846 -1.1264
-0.7350 -0.5210 -0.9957
-0.7581 -0.4631 -1.1267
-0.6330 -0.4855 -0.9126
-0.6813 -0.4538 -1.0063
-0.5935 -0.4911 -0.9358
-0.6110 -0.5213 -0.9800
-0.5365 -0.5003 -0.8831
-0.6189 -0.4863 -1.0987
-0.4983 -0.4961 -0.9614
-0.4738 -0.4971 -0.9179
-0.4771 -0.4949 -0.9730
-0.5531 -0.4712 -1.2882
-0.4281 -0.5006 -0.9452
-0.5031 -0.5109 -1.1409
-0.4622 -0.8062 -1.4541
-0.4771 -0.4904 -1.3520
-0.4348 -0.8144 -1.4762
-0.3269 -0.4911 -1.0069
-0.3426 -0.4878 -1.2127
-0.7777 -0.4887 -1.2786
-0.6758 -0.4801 -1.3240
-0.4400 -0.4895 -1.3731
-0.9115 -0.4770 -1.0953
-0.6744 -0.4748 -0.8535
-0.7442 -0.4880 -0.9676
-0.8604 -0.4795 -1.1387
-0.7833 -0.4701 -1.1650
-0.7689 -0.4781 -1.1801
-0.7255 -0.4797 -1.2334
-0.7141 -0.4784 -1.2132
-0.6790 -0.4728 -1.2828
-0.6578 -0.4893 -1.2544
-0.6521 -0.4853 -1.2827
-0.5898 -0.4824 -1.3102
-0.5202 0.0201 -0.9387
-0.7850 -0.4914 -0.9445
-0.7559 -0.4831 -0.9038
-0.8198 -0.5013 -0.9815
-0.8487 -0.4859 -1.0744
-0.8191 -0.4894 -1.0531
-0.8005 -0.4801 -1.0286
-0.8200 -0.5169 -1.0183
-0.7896 -0.4731 -0.9888
-0.8272 -0.4641 -1.1231
-0.8522 -0.4835 -1.1975
-0.7717 -0.4838 -1.0633
-0.6702 -0.4986 -0.9244
-0.8101 -0.4737 -1.2058
-0.7538 -0.4853 -1.0739
-0.7360 -0.4647 -1.0489
-0.7123 -0.5000 -1.0347
-0.7130 -0.4621 -1.0104
-0.6785 -0.5083 -0.9836
-0.7891 -0.4675 -1.2131
-0.7053 -0.5111 -1.0315
-0.7598 -0.4718 -1.2063
-0.6914 -0.4776 -1.0917
-0.7017 -0.5260 -1.0679
-0.6597 -0.4934 -1.0352
-0.6497 -0.5335 -0.9930
-0.6098 -0.5130 -0.9614
-0.6517 -0.4906 -1.0650
-0.5805 -0.4837 -0.9131
-0.6558 -0.4831 -1.1160
-0.6420 -0.4772 -1.0929
-0.6662 -0.5170 -1.1418
-0.6156 -0.4523 -1.0225
-0.5809 -0.5114 -1.0085
-0.5548 -0.5176 -0.9635
-0.6063 -0.4652 -1.0725
-0.5466 -0.5221 -0.9995
-0.5333 -0.5191 -0.9757
-0.5843 -0.4804 -1.1268
-0.6868 -1.3630 -1.6129
-0.5299 -0.4899 -1.1347
-0.5097 -0.4898 -1.1469
-0.4533 -0.5063 -0.9900
-0.5093 -0.5462 -1.1127
-0.5031 -0.4899 -1.1801
-0.4474 -0.5303 -1.0940
-0.4903 -0.4833 -1.2416
-0.4556 -0.5029 -1.1464
-0.4630 -0.5017 -1.2104
-0.4504 -0.4994 -1.1874
-0.4429 -0.5098 -1.2270
-0.4248 -0.5026 -1.2346
-0.6665 -0.4767 -0.8649
-0.7366 -0.5088 -0.9393
-0.9729 -0.5071 -1.2298
-0.8940 -0.4818 -1.3070
-0.8119 -0.5050 -1.2962
-0.7134 -0.4522 -1.4061
-0.9396 -0.4660 -1.0573
-0.9291 -0.4747 -1.0702
-0.8378 -0.4654 -1.1395
-0.8312 -0.4893 -1.1610
-0.7200 -0.0418 -1.1223
-0.7247 -0.4737 -1.1927
-0.6709 -0.4864 -1.2323
-0.6784 -0.4781 -1.3237
-0.7973 -0.4862 -0.8982
-0.9040 -0.4814 -1.0357
-0.8495 -0.4638 -1.0036
-0.8945 -0.4739 -1.0674
-0.8704 -0.4795 -1.0263
-0.7717 -0.4876 -0.9447
-0.8073 -0.4776 -1.0670
-0.7911 -0.4684 -1.0442
-0.7366 -0.4584 -0.9752
-0.7794 -0.4707 -1.0799
-0.7172 -0.4596 -1.0578
-0.6619 -0.4499 -1.0168
-0.7379 -0.4978 -1.1749
-0.6606 -0.4650 -1.0417
-0.6957 -0.4753 -1.1859
-0.6223 -0.4443 -1.1408
-0.6433 -0.4913 -1.1422
-0.6061 -0.4459 -1.0494
-0.5975 -0.4987 -1.0445
-0.5949 -0.4738 -1.1899
-0.9816 -0.4356 -1.1203
-1.0593 -0.4831 -1.1806
-1.0408 -0.4990 -1.1779
-0.9571 -0.4712 -1.2594
-0.9358 -0.4836 -1.2587
-0.8587 -0.4841 -1.2493
-0.7129 -0.4830 -1.4196
-0.6410 -0.1204 -0.8826
-0.7103 -0.1377 -1.0420
-0.6764 -0.1138 -0.8846
-0.6708 -0.0921 -0.8932
-0.7109 -0.1327 -0.9274
-0.5956 0.0073 -0.9514
-0.5269 -0.3835 -1.0601
-0.7089 -0.4689 -0.8834
-0.7221 -0.4687 -0.9050
-0.6788 -0.4606 -0.8853
-0.6843 -0.4630 -0.9054
-0.6443 -0.4509 -1.0277
-0.6750 -0.4540 -1.1068
-0.6355 -0.4601 -1.0792
-0.6102 -0.0654 -1.0262
-0.8028 -0.4731 -0.9593
-0.8309 -0.4820 -0.9656
-0.8833 -0.4778 -1.0468
-0.7939 -0.4689 -0.9483
-0.8190 -0.4800 -1.0315
-0.8401 -0.4489 -1.1176
-0.8032 -0.4729 -1.1208
-0.7731 -0.4716 -1.1112
-0.7617 -0.4730 -1.0914
-0.7385 -0.4749 -1.1334
-0.7265 -0.4750 -1.1127
-0.6817 -0.4804 -1.1680
-0.6738 -0.4842 -1.1477
-0.5187 -0.4548 -1.1753
-0.5354 -0.4723 -1.2540
-0.5069 -0.4726 -1.2152
-0.4823 -0.4695 -1.2044
-0.5773 0.0172 -0.9503
-1.7325 -1.0461 -2.5079
-0.9515 -0.4874 -1.0857
-0.7126 -0.4784 -1.3348
-0.7057 -0.4846 -1.3714
-0.6668 -0.4869 -1.3082
-0.9674 -0.5018 -1.0377
-0.9223 -0.4817 -1.0236
-0.8834 -0.4906 -1.0844
-0.8229 -0.4862 -1.1891
-0.6623 -0.4723 -1.2531
-0.5741 0.0307 -0.9363
-0.5847 0.0630 -0.9280
-0.9549 -0.4950 -1.2842
-0.9318 -0.4856 -1.2871
-0.8789 -0.4874 -1.3211
-0.8658 -0.4844 -1.3007
-0.8117 -0.4833 -1.3330
-0.7381 -0.4827 -1.3789
-0.6740 -0.4838 -1.4449
-0.6257 -0.4864 -1.4518
-1.0206 -0.5079 -1.0562
-1.0042 -0.5014 -1.1166
-0.5617 0.0203 -0.9353
-0.5762 0.0475 -0.9328
-0.6077 0.0540 -0.9219
-0.6033 0.0609 -0.9415
-0.5821 0.0005 -1.0130
-0.5784 0.0218 -0.9334
-0.5966 0.0918 -0.9214
-0.5908 0.0508 -0.9288
-0.5860 0.0436 -0.9463
-0.5898 0.0572 -0.9290
-0.5870 0.0886 -0.8966

