0.1262 -0.0087 0.1749
0.1157 0.0264 0.2277
0.2239 -0.0113 0.2859
0.1740 0.0115 0.4075
0.0990 -0.0092 0.3442
0.0862 0.0389 0.3425
0.1335 0.0428 0.4495
0.0556 0.0029 0.4603
0.1460 0.0110 0.2892
0.1097 0.2123 0.2777
0.1496 0.1118 0.5331
0.1521 -0.0037 0.3805
0.1963 -0.0045 0.7306
0.1482 0.0118 0.6476
0.3885 -0.0593 0.3316
0.2393 -0.0194 0.5324
0.1252 -0.0613 0.3771
0.1431 -0.1364 0.4351
0.2558 -0.0272 0.3967
0.1547 0.0147 0.3226
0.2949 -0.0005 0.3589
0.1670 -0.0008 0.3005
0.1690 -0.0142 0.2905
0.2885 -0.0448 0.5994
0.0624 -0.0317 0.4564
0.4451 -0.1098 0.5317
0.1029 -0.0049 0.4865
0.3433 -0.0156 0.4690
0.1305 -0.0287 0.3438
0.0879 -0.0013 0.3373
0.2199 -0.0447 0.4487
0.2367 -0.0621 0.2352
0.0256 -0.0168 0.3821
0.1202 -0.0410 0.4051
0.0766 0.0131 0.5675
0.0531 -0.0171 0.3631
0.3190 -0.0496 0.5730
0.3480 -0.0132 0.4879
0.3521 -0.0147 0.3397
0.1788 0.0072 0.4157
0.0664 0.0075 0.5381
0.1231 0.0192 0.6437
0.1488 -0.0139 0.5018
0.0056 0.0040 0.4052
0.1086 0.0129 0.5481
-0.0525 0.0388 0.4387
0.0568 0.0106 0.4959
0.2399 -0.0091 0.7055
0.0652 0.0080 0.5658
0.2265 0.0175 0.6029
0.0909 -0.0041 0.4392
0.0505 -0.0081 0.4416
0.1310 -0.0030 0.5382
0.0371 -0.0004 0.3890
0.1095 0.0043 0.5124
0.1100 -0.0190 0.4271
-0.0015 0.0126 0.4100
0.2596 -0.0342 0.6123
0.2477 0.0105 0.7207
0.0005 0.0004 0.4132
0.0651 0.0047 0.4466
0.0193 -0.0068 0.5627
0.0385 0.0284 0.5642
0.2194 -0.0076 0.5275
0.0466 -0.0049 0.4899
0.1387 0.0419 0.6393
0.1156 -0.0059 0.4558
0.1343 0.0045 0.4406
0.1947 -0.0011 0.7255
0.1656 0.0059 0.4484
-0.0480 0.0028 0.5488
0.1733 0.0870 0.3328
0.0734 0.0081 0.6559
0.1362 0.0048 0.7012
0.1407 -0.0094 0.4187
0.2234 -0.0260 0.6777
-0.0351 0.0466 0.5479
0.0453 0.0016 0.6397
0.2702 0.0311 0.4656
0.2739 -0.0296 0.4705
0.1745 -0.0059 0.6424
0.1471 0.0178 0.6051
0.0504 0.0197 0.3960
0.1699 -0.0031 0.6963
0.0284 -0.0021 0.4987
0.2042 -0.0364 0.4745
0.2605 -0.0047 0.6862
0.2882 0.0011 0.6786
0.2134 -0.0099 0.7154
0.0127 -0.0107 0.6026
0.3303 -0.0254 0.4821
0.2556 -0.0179 0.4744
0.1495 0.0035 0.4447
0.2940 -0.0169 0.5748
0.2329 -0.0082 0.5513
0.1379 -0.0032 0.5225
0.0275 0.0112 0.4655
0.2956 0.0137 0.6684
-0.0011 -0.0176 0.4784
0.2553 0.0371 0.6939
0.3467 -0.0036 0.2297
0.3109 -0.0086 0.2808
0.2893 -0.0021 0.3362
0.1207 -0.0143 0.3566
0.3490 -0.0403 0.4674
0.0673 -0.0033 0.3569
0.0519 -0.0112 0.3399
0.2961 -0.0020 0.3499
0.3135 -0.0173 0.4606
0.3186 -0.0335 0.2939
0.4122 -0.0426 0.2474
0.2871 -0.0132 0.2142
0.2814 -0.0146 0.2423
0.1940 -0.0032 0.3053
0.1529 -0.0235 0.3243
0.0682 -0.0004 0.3021
0.3233 0.0592 0.3126
0.2627 -0.0116 0.4129
0.0346 -0.0156 0.6136
0.0154 0.0496 0.4039
0.1421 -0.0136 0.5507
0.1653 -0.0118 0.5789
0.1117 0.0071 0.5453
0.1644 0.0098 0.7061
0.1147 -0.0008 0.5019
-0.0154 -0.0038 0.5537
-0.0090 0.0060 0.4883
0.1202 0.0000 0.6337
0.0711 0.0066 0.5453
0.2530 -0.0382 0.6696
-0.0121 0.0134 0.5338
0.0062 -0.0118 0.4230
0.0089 -0.0169 0.5969
-0.0018 -0.0225 0.5262
0.3181 -0.0150 0.6592
0.1095 -0.0186 0.6701
-0.0366 0.0066 0.4648
0.0027 0.0697 0.4949
0.2407 0.0078 0.6615
-0.0782 0.5214 0.2440
0.1484 -0.0077 0.2096
0.2264 -0.0254 0.2223
0.2886 -0.0383 0.2081
0.0400 -0.0028 0.4280
0.3654 -0.0259 0.4875
0.4898 -0.2614 0.5220
0.3811 -0.0266 0.5482
0.0784 -0.0114 0.4281
0.3497 -0.0017 0.4379
0.0851 -0.0070 0.3933
0.0230 -0.0014 0.3730
0.1693 0.0062 0.4882
0.0118 0.0230 0.4884
-0.1893 0.0025 0.4042
0.2227 -0.0231 0.1895
0.2098 -0.0300 0.2003
0.2354 -0.0378 0.2528
0.3895 -0.0260 0.3988
0.0951 -0.0074 0.2496
0.3254 -0.0239 0.3720
0.2815 0.0012 0.4000
0.2349 0.0053 0.4082
0.2853 -0.0111 0.4369
0.1874 0.0083 0.4354
0.2326 -0.0073 0.4617
0.0886 -0.0045 0.3945
0.1475 -0.0054 0.5466
0.0056 -0.0064 0.4631
0.2081 0.0042 0.6471
0.2238 -0.0042 0.6710
0.0661 -0.0266 0.5871
0.0119 -0.0030 0.5833
0.1674 -0.0059 0.3798
0.1560 -0.0187 0.3792
0.1182 0.0041 0.5357
0.0544 0.0499 0.5635
0.1341 0.0024 0.3518
0.0718 0.0223 0.6096
0.2847 -0.0029 0.4117
0.0891 -0.0057 0.5036
0.1547 -0.0111 0.2693
0.2217 -0.0027 0.3355
0.0232 -0.0117 0.4778
0.0127 -0.0257 0.4860
0.1415 -0.0080 0.2371
0.3932 -0.0378 0.5113
0.0717 0.0096 0.3320
0.1225 0.0077 0.5190
0.0548 -0.0018 0.4411
0.0028 0.3637 0.3395
0.0916 -0.0353 0.1887
0.1329 -0.0337 0.2040
0.1541 -0.0153 0.1657
0.0770 -0.0415 0.1785
0.0934 -0.0156 0.1680
0.1728 -0.0190 0.1755
0.0905 -0.0298 0.2078
0.2951 -0.0617 0.2026
0.1772 -0.0005 0.2272
0.4906 -0.0663 0.2737
0.1041 -0.0059 0.2269
0.4029 -0.0483 0.3629
0.1417 -0.0156 0.2962
0.0911 -0.0050 0.3316
0.0653 -0.0039 0.3333
0.2682 0.0208 0.4882
0.2182 0.0016 0.4657
0.1437 -0.0055 0.6211
0.1630 -0.0076 0.6448
0.1698 -0.0045 0.6723
0.1438 0.0111 0.5193
0.1668 -0.0066 0.5192
0.2017 -0.0130 0.4993
0.1422 -0.0034 0.4483
0.2269 -0.0014 0.7077
0.2876 -0.0187 0.7592
0.1119 -0.0334 0.1506
0.4409 -0.0128 0.3281
-0.0894 0.2958 0.2023
0.0460 0.0128 0.2237
-0.0013 0.2191 0.2324
0.2275 -0.0164 0.3259
0.2734 0.0010 0.3608
0.2019 0.0013 0.3452
0.2309 -0.0122 0.3718
0.0677 -0.0078 0.2916
0.2056 -0.0011 0.3583
0.1256 -0.0034 0.3429
0.3031 -0.0003 0.4826
0.1373 -0.0024 0.4412
0.2454 0.0141 0.5957
0.1587 -0.0076 0.5639
0.0709 -0.0048 0.5378
0.0501 -0.0032 0.4297
0.1746 -0.0069 0.4153
0.1449 -0.0196 0.1616
0.2306 -0.0148 0.3400
0.1437 -0.0141 0.5981
0.0680 -0.0058 0.5226
0.2207 -0.0079 0.5337
0.1548 -0.0263 0.2962
0.2653 -0.0147 0.4099
0.1100 -0.0081 0.5124
0.3908 -0.0267 0.3270
0.3244 -0.0294 0.2984
0.1565 -0.0187 0.3677
0.2365 -0.0060 0.4669
0.0776 -0.0036 0.4538
0.1380 0.2953 0.3416
-0.0916 0.2914 0.2867
0.2584 -0.0082 0.6815
0.3870 -0.0733 0.2275
0.0791 0.0308 0.2324
0.3168 -0.0129 0.3414
0.3442 -0.0154 0.3836
0.0755 -0.0388 0.2638
0.3277 -0.0039 0.4548
0.3931 -0.1008 0.5357
0.1908 -0.0044 0.4193
0.2221 0.0016 0.4563
0.0819 0.0439 0.4028
0.3130 0.0059 0.5839
0.2982 -0.0390 0.6011
0.0477 0.0202 0.4480
0.2248 0.0042 0.5871
0.2988 0.0028 0.6375
0.2253 -0.0016 0.6185
0.2073 -0.0200 0.6178
0.0730 0.0094 0.5232
0.3055 -0.0111 0.6987
0.0696 -0.0020 0.5787
0.0913 0.0299 0.5961
-0.0351 -0.0140 0.5413
0.1826 0.0056 0.7226
0.1593 0.0032 0.7153
0.1369 0.0021 0.7079
-0.0238 0.0102 0.5759
0.0294 -0.0136 0.6337
0.1623 0.0097 0.5271
-0.0087 0.4723 0.2919
-0.0595 0.4793 0.2887
0.2046 0.0515 0.2025
0.1368 -0.0058 0.2937
0.0818 -0.0157 0.2673
0.3740 -0.0158 0.4396
0.2686 -0.0075 0.3966
0.2806 -0.0023 0.4837
0.1707 -0.0233 0.4477
0.1490 0.0012 0.4506
0.1504 -0.0200 0.4610
-0.0120 -0.0030 0.4149
0.0321 -0.0115 0.4591
0.0732 0.0081 0.4890
0.2080 -0.0017 0.5828
0.1080 0.1372 0.4958
0.0188 -0.0101 0.4806
0.0245 -0.1191 0.5123
0.0609 -0.0166 0.5507
0.1193 0.0010 0.5957
0.1281 -0.0472 0.6393
0.1692 -0.0392 0.7130
-0.0492 0.0005 0.5872
0.1302 -0.0046 0.5883
0.2886 -0.0563 0.2090
0.0056 -0.0088 0.5530
0.1576 -0.0240 0.7237
0.2747 -0.0678 0.7180
-0.0492 0.4249 0.3334
0.0879 -0.0046 0.5291
0.0703 -0.0036 0.4303
-0.0463 0.3993 0.2483
0.0633 0.0036 0.5597
0.1984 0.0048 0.2565
0.0438 0.0026 0.6798
0.0015 0.0028 0.6391
0.0826 0.0035 0.6909
0.1049 -0.0018 0.6981
0.1393 -0.0417 0.7333
0.0513 0.0090 0.5694
0.1094 0.0042 0.5331
0.1568 0.0179 0.4115
0.3648 0.0093 0.4724
0.1634 -0.0361 0.2140
0.3421 -0.0139 0.4850
0.1950 -0.0144 0.2378
0.2079 -0.0061 0.2694
0.3563 -0.0379 0.3231
0.2455 -0.0087 0.6370
0.0499 0.0144 0.4846
0.2120 -0.0128 0.6772
0.0183 -0.0058 0.4743
0.1482 0.0108 0.2142
0.2204 0.0266 0.2466
0.1229 0.0012 0.2953
0.1926 -0.0111 0.3471
0.1569 0.0003 0.3002
0.0703 -0.0141 0.3323
0.0954 0.0066 0.3643
0.2464 -0.0011 0.4579
0.0755 0.0055 0.3917
0.2311 0.0088 0.4570
0.0124 0.0022 0.3773
0.0381 0.0025 0.4026
0.1912 0.0137 0.4726
0.1637 0.0378 0.4808
0.0817 0.0118 0.4741
0.0018 -0.0066 0.5405
0.1493 0.0025 0.6344
-0.0216 0.0137 0.5691
-0.0063 -0.0005 0.6415
-0.2537 0.0020 0.4863
-0.0039 0.3876 0.2966
0.1119 -0.0120 0.5079
0.0550 0.0059 0.5150
0.0301 0.0290 0.3877
0.1475 0.0084 0.2397
0.0982 -0.0040 0.2267
0.0696 0.0330 0.2265
0.2952 0.0012 0.2984
0.2449 0.0013 0.2904
0.1281 -0.0089 0.4220
-0.0150 -0.0045 0.6545
0.3875 0.0047 0.4063
0.0264 0.0013 0.6748
-0.0365 -0.0031 0.6547
-0.0766 -0.0217 0.6504
0.0939 -0.0286 0.2469
0.1559 -0.0004 0.3102
0.0630 -0.0578 0.2657
0.0629 -0.0056 0.3020
0.3304 0.0088 0.4339
0.0804 -0.0019 0.3371
0.0467 -0.0055 0.3410
0.1161 0.0043 0.4418
0.0246 -0.0036 0.4537
-0.0046 0.0021 0.4579
0.0462 -0.0119 0.5043
-0.0004 0.0028 0.4957
0.1637 -0.0018 0.6043
0.2660 0.0091 0.6772
0.1322 0.0015 0.6126
0.1509 0.0008 0.7135
-0.0607 -0.0064 0.6136
-0.1861 -0.0111 0.6320
-0.0933 -0.0193 0.6459
-0.0862 -0.0025 0.6407
0.0373 0.0059 0.4363
0.1581 0.0047 0.4124
0.0658 -0.0109 0.6331
0.1400 0.0046 0.5672
0.1933 -0.0209 0.2573
0.0402 0.0055 0.4263
0.1385 0.0002 0.2698
0.1450 -0.0059 0.3770
0.0597 0.0055 0.4269
0.1042 0.0025 0.3543
0.2205 0.0041 0.3239
0.1522 -0.0094 0.3136
0.1242 0.0064 0.5834
0.1001 -0.0050 0.7090
0.1284 0.0051 0.4477
0.2041 0.0157 0.5395
0.1044 0.0214 0.6829
0.3130 -0.0044 0.3196
0.2051 -0.0003 0.3502
0.2312 0.0013 0.3904
0.2219 -0.0019 0.4060
0.2063 -0.0055 0.4601
0.2691 -0.0036 0.5016
0.1074 -0.0006 0.4530
0.0159 0.0122 0.4245
0.0071 -0.0012 0.4230
-0.0109 -0.0038 0.5153
0.1038 -0.0001 0.4350
0.2754 -0.0032 0.4112
0.1391 0.0024 0.5405
0.0555 0.0053 0.6097
-0.0245 -0.0076 0.6592
0.1302 0.0051 0.3222
-0.0009 -0.0070 0.4197
0.0189 0.0032 0.4782
-0.0197 0.0236 0.4116
0.3220 -0.0025 0.3237
0.2157 -0.0004 0.3688
0.3513 0.0021 0.4337
0.1719 -0.0022 0.4188
0.2116 0.0085 0.4563
0.0487 0.0008 0.5684
0.1127 0.0041 0.6279
0.1458 -0.0005 0.3806
0.0118 0.0044 0.5551
-0.0090 0.0181 0.6595
0.3028 0.0035 0.4743
0.0835 -0.0039 0.2501
-0.0113 0.0016 0.4057
-0.0151 -0.0050 0.4142
0.2323 0.0028 0.3019
-0.0653 0.0035 0.6431
0.2905 -0.0021 0.2976
0.3555 0.0068 0.3942

