0.2765 -1.3850 0.4326
-0.0809 -1.3043 0.4062
0.2629 -1.2723 0.2160
0.0095 -1.2351 0.1704
0.4954 -1.3075 1.5632
-0.0068 -1.1712 0.8364
0.3398 -1.2626 0.0578
0.3306 -1.3027 0.0836
0.0258 -1.1549 0.9164
-0.0449 -1.2281 0.1533
-0.0433 -1.1177 0.9651
-0.3803 -1.2518 0.0055
-0.3130 -1.2511 0.0758
0.0649 -1.3435 1.3898
-0.2411 -1.2593 -0.0298
0.0797 -1.2817 -0.0583
-0.3360 -1.2855 0.0130
-0.1276 -1.2893 0.3433
-0.0062 -1.3279 0.3400
-0.2801 -1.2143 0.8515
-0.2178 -1.1714 -0.0087
0.0358 -0.9130 0.8660
-0.4560 -1.2897 0.0783
-0.4681 -1.2512 -0.0150
-0.4361 -1.2855 0.1250
0.3681 -0.9376 0.2213
-0.3569 -1.2090 0.3030
-0.2259 -1.1332 0.9322
-0.3987 -1.2324 0.0198
-0.1413 -0.9696 0.9089
-0.3489 -1.2858 0.2294
-0.2613 -1.2608 0.7726
-0.1815 -1.1596 0.8893
-0.3563 -1.2635 0.0092
-0.0567 -1.0835 1.0537
-0.2952 -1.2879 0.1561
-0.2783 -1.2816 0.0105
-0.2697 -1.3504 0.1504
-0.0690 -1.2740 0.8869
-0.1796 -1.2377 0.1653
-0.0154 -1.2674 0.8676
-0.4747 -1.4069 0.2623
-0.0192 -1.2021 0.1347
0.0396 -1.2740 0.1233
-0.4613 -1.3413 0.3422
-0.3897 -1.2917 0.7046
-0.3791 -1.2360 0.3789
0.3206 -1.3629 0.3337
-0.3341 -1.2665 0.3342
-0.2846 -1.3087 0.7550
0.2117 -1.4513 0.2775
-0.2230 -1.2777 0.2666
-0.2664 -1.2664 -0.0028
0.0542 -1.2960 -0.0038
0.0619 -1.3005 0.0565
0.0318 -1.2603 0.4884
-0.4669 -1.2798 0.2049
-0.4154 -1.2223 0.1724
-0.1288 -1.2719 0.4121
-0.3599 -1.2615 0.3566
-0.1993 -1.2468 0.3313
-0.1961 -1.2712 0.0020
-0.0936 -1.2936 0.3613
-0.0295 -0.9205 1.2239
-0.1184 -1.2804 0.3521
-0.4295 -1.2413 0.4335
-0.3050 -1.2568 0.2837
0.2130 -1.2890 0.3339
-0.0686 -1.2640 0.1621
-0.3896 -1.2225 0.4128
-0.1788 -1.2239 0.4873
-0.3603 -1.2813 0.2852
-0.2171 -1.2486 0.1832
0.5547 -1.3359 0.1730
0.3373 -1.2694 0.1294
0.1881 -1.2824 0.2101
0.1146 -1.2599 0.0599
0.2064 -0.7400 0.3605
0.1551 -1.3270 0.9747
0.1339 -1.2425 0.9719
-0.0246 -1.3244 0.3955
-0.1046 -1.3308 0.4564
0.1041 -1.2162 1.4938
-0.0833 -1.0488 0.8890
-0.0897 -0.9704 0.9941
-0.2950 -1.2462 0.6632
-0.1360 -1.0035 1.0368
-0.4226 -1.2566 0.1177
-0.4476 -1.2505 0.1609
0.2358 -0.8338 0.2530
0.3145 -0.8307 0.5767
0.2347 -1.3495 0.7469
0.2260 -1.2457 0.9011
0.1675 -1.3217 0.9179
0.0146 -1.3456 0.5551
0.0847 -1.4417 1.7679
0.0627 -1.1977 1.1579
0.0292 -1.0893 0.8185
0.0251 -1.1110 0.8019
-0.0523 -1.2543 0.9374
-0.0782 -1.3517 0.8778
-0.0411 -1.0159 1.0347
-0.1391 -1.3065 1.0072
-0.1700 -1.2905 0.5082
-0.1866 -1.3489 0.3419
-0.2021 -1.2536 0.0768
-0.2363 -1.3602 0.2714
-0.2325 -1.2701 0.1502
-0.2568 -1.3034 0.6761
-0.2692 -1.2838 0.1283
-0.2535 -1.1973 0.1082
-0.3126 -1.3800 0.6501
-0.2665 -1.1645 0.9593
-0.3267 -1.2611 0.4397
-0.3684 -1.3277 0.3621
-0.3267 -1.0654 1.0645
-0.4072 -1.2853 0.3133
-0.3958 -1.2774 0.1927
-0.4283 -1.3123 0.4084
-0.4011 -1.2356 0.3229
-0.4211 -1.2503 0.2447
-0.4739 -1.2976 0.4621
-0.4760 -1.3124 0.3941
-0.4912 -1.1409 1.2198
-0.5082 -1.3010 0.4015
-0.5261 -1.2909 0.4129
-0.3391 -1.3734 0.2653
-0.1595 -1.2040 0.8849
0.3006 -0.8375 0.3092
0.3256 -0.9688 0.3222
0.2653 -1.3421 0.4435
0.1458 -1.3038 0.1453
0.2149 -1.2790 0.8206
0.1773 -1.2785 1.2050
-0.0207 -1.1665 0.1616
-0.0580 -1.0032 0.2930
-0.1515 -1.1037 0.8717
-0.2573 -1.2867 0.2015
-0.2983 -1.1246 0.9327
-0.3664 -1.3097 0.6041
-0.3318 -1.2719 0.2321
-0.3678 -1.2677 0.9692
-0.3641 -1.1383 1.1229
-0.4587 -1.2310 1.3166
0.2907 -1.1160 0.3969
0.2579 -1.1893 0.3260
0.2267 -1.1304 0.2788
0.2204 -1.3597 0.8884
0.2556 -1.3262 1.2884
0.1507 -1.1003 0.8524
0.0958 -1.2511 0.8778
0.0728 -1.3175 0.3114
0.0820 -0.6200 1.1665
0.0477 -1.0977 0.8562
-0.0367 -0.6285 1.2831
-0.0164 -0.6444 1.2022
-0.0378 -0.6496 1.1484
-0.0919 -1.2892 0.6234
-0.0973 -1.2973 0.3837
-0.0807 -0.6353 1.1846
-0.1112 -1.1724 0.5277
-0.1028 -0.6379 1.1678
-0.1184 -1.3196 0.2314
-0.1560 -0.6323 1.4952
-0.2870 -1.0970 0.9745
-0.2483 -1.3694 0.2484
-0.3789 -1.3425 0.4455
-0.4064 -1.4141 0.4060
-0.4442 -1.3617 0.5229
-0.4269 -1.3167 0.4512
-0.3750 -1.3089 0.1867
-0.4106 -1.3282 0.1547
-0.4198 -0.6912 1.1255
-0.5292 -1.0243 1.0857
-0.4385 -0.6568 1.1523
-0.4996 -0.7382 1.2567
-0.5045 -0.7443 1.1612
-0.5469 -1.3327 0.3697
-0.5435 -0.6683 1.3248
-0.5327 -0.6523 1.2572
-0.5355 -0.7496 1.0986
-0.6091 -1.3476 0.3238
-0.6011 -0.6954 1.2052
-0.3206 -1.1945 0.2369
0.2984 -0.9686 0.1998
0.2708 -1.1462 0.2585
0.1998 -1.2726 0.2555
0.1864 -1.2438 0.2121
0.3386 -1.2279 2.5640
0.1478 -0.7378 1.2301
0.0182 -0.6341 1.1705
-0.0484 -1.0622 0.8516
-0.3256 -1.2741 0.1565
-0.3550 -0.6101 0.9495
-0.4998 -0.7008 1.2303
-0.1610 -1.2694 0.4080
-0.2004 -1.1165 0.8585
-0.1334 -0.9288 0.8728
-0.1655 -0.7074 1.4367
-0.4469 -1.3403 0.1705
0.1392 -0.6160 1.0931
-0.4924 -0.6040 0.9359
-0.7063 -0.7337 1.4811
-0.4513 -0.3718 1.0181
-0.5149 -0.6094 1.1136
0.0619 -0.6447 1.1413
0.1530 -1.2822 1.2508
0.0287 -0.6938 1.4115
0.0308 -0.6285 1.1410
-0.5277 -1.1671 1.1835
-0.0128 -0.6464 1.3210
-0.4870 -1.1813 1.1902
-0.3243 -0.5790 0.8922
-0.0449 -0.6803 1.3119
-0.2860 -1.3403 0.4786
-0.0020 -1.0717 0.8972
-0.0148 -1.1755 0.8409
-0.0286 -1.1185 0.8943
-0.0461 -1.1526 0.8768
-0.0830 -0.8810 0.7617
-0.1713 -0.7233 1.4946
-0.3004 -1.0799 1.1038
-0.1219 -1.0165 0.9453
-0.1709 -1.3231 0.5086
-0.2153 -1.0712 0.8977
-0.1926 -1.1303 0.9062
-0.5924 -1.2605 0.2620
-0.0877 -1.2296 0.5757
0.0111 -1.2999 0.4165
0.0268 -1.2579 0.4970
-0.2373 -1.3130 0.3698
0.0962 -0.6300 1.1249
-0.0313 -1.2683 0.3834
-0.1194 -1.2512 0.8287
-0.6106 -0.7081 1.4055
-0.7449 -1.3604 0.5603
-0.5608 -1.1620 0.2775
-0.5948 -1.2862 0.2602
-0.7415 -0.6678 1.2304
-0.3598 -1.3377 0.2595
-0.8051 -0.6658 0.9196
-0.7700 -0.6212 0.9774
-0.5190 -0.6172 1.2189
-0.4836 -0.6453 1.2274
0.0342 -0.6468 1.2029
-0.6853 -1.2569 0.3334
-0.7493 -0.6447 0.8741
-0.9463 -1.1641 0.9273
-0.6360 -1.4562 0.2607
-0.6090 -1.2335 0.3331
-0.0305 -0.2877 0.0706
-0.0315 -1.2728 0.4042
0.1396 -0.6881 1.1469
-0.3656 -0.4366 0.2143
-0.1525 -0.1540 0.3854
-0.0573 -0.1875 0.0904
-0.1892 -0.0845 0.2799
-0.1700 -0.0300 0.1099
-0.0952 -0.0133 -0.0087
-0.1156 0.0068 0.0090
-0.1202 -0.0325 -0.0042
-0.1795 -1.1923 1.2921
-0.2944 -1.2488 0.4485
-0.1300 -1.2946 0.1913
-0.7237 -0.6474 0.7597
-0.1145 -0.0893 0.0485
-0.8714 -0.6494 1.0051
-0.1017 -0.0470 0.0000
-0.0770 -0.6163 1.1008
-0.9817 -0.6837 1.2563
-0.4424 -0.3865 0.3246
-0.2931 -0.7087 1.9192
-1.2611 -0.8605 2.0756
-0.1348 -0.6401 1.5151
-0.3797 -0.6281 1.5760
-0.6565 -1.2715 0.5415
-0.6427 -0.6462 0.9525
-0.0891 -0.6208 1.1449
-0.4058 -0.6779 1.1445
-0.0924 -0.0438 0.0020
-0.1508 -0.1353 0.0595
-0.0939 -0.6710 1.1794
-0.1138 0.0924 -0.0239
-0.1400 -0.0313 0.0353
-0.1159 -0.1240 0.1468
-0.1368 -0.0283 -0.0008
-0.1214 0.0424 0.0183
-0.0944 0.1059 -0.0457

