-0.1657 -0.5695 0.0983
0.1455 -0.5291 0.3262
0.1287 -0.5463 0.3441
0.0912 -0.5638 0.4995
0.1076 -0.5524 0.3420
0.1466 -0.6052 0.1669
0.0784 -0.5451 0.3320
-0.1706 -0.5602 0.4286
-0.1995 -0.5442 0.4461
0.1428 -0.5318 0.1568
0.0800 -0.5456 0.5100
0.0454 -0.5339 0.5280
-0.0562 -0.5741 0.1278
-0.1329 -0.5739 0.0893
-0.1582 -0.5658 0.0744
-0.2279 -0.5756 0.0658
0.1657 -0.5657 0.7515
0.0331 -0.5643 0.6673
0.0491 -0.5636 0.6979
0.0334 -0.5404 0.4874
-0.0170 -0.5695 0.7075
-0.2314 -0.5560 0.5854
-0.1911 -0.5401 0.4268
-0.1964 -0.5765 0.4328
-0.1546 -0.5654 0.2837
-0.2772 -0.5592 0.3996
-0.1997 -0.5607 0.6268
0.1267 -0.5583 0.1816
0.0229 -0.5554 0.7056
-0.2267 -0.5566 0.6329
-0.2536 -0.5702 0.6357
0.1910 -0.5569 0.3032
0.0815 -0.5530 0.3019
0.2584 -0.5565 0.7340
0.2396 -0.5663 0.7689
0.2154 -0.5655 0.7326
0.0267 -0.5644 0.6937
-0.2226 -0.5639 0.6295
-0.2869 -0.5674 0.6022
-0.3245 -0.5451 0.3948
-0.3034 -0.5670 0.5739
0.1608 -0.5654 0.3628
-0.0401 -0.5441 0.6703
-0.2869 -0.5636 0.2337
-0.2888 -0.5530 0.2392
0.0301 -0.5473 0.3202
0.1452 -0.5526 0.2900
0.1343 -0.5744 0.5546
0.1488 -0.5692 0.1887
0.1119 -0.5571 0.1702
0.0919 -0.5700 0.1408
0.0627 -0.5686 0.1576
-0.0108 -0.5787 0.2918
0.0077 -0.5625 0.2024
-0.0018 -0.5745 0.1164
-0.0316 -0.5694 0.1336
-0.1160 -0.5828 0.2890
-0.0814 -0.5761 0.1215
-0.1431 -0.5734 0.1045
-0.2357 -0.5544 0.1065
-0.2774 -0.5735 0.1630
-0.2473 -0.5710 0.1390
0.1796 -0.5596 0.3674
-0.3812 -0.5612 0.4171
0.1876 -0.5645 0.7485
0.1199 -0.5649 0.7103
0.1443 -0.6056 0.1679
0.0445 -0.5684 0.7201
0.0388 -0.5674 0.6445
0.0603 -0.5654 0.3425
-0.2471 -0.5631 0.2617
-0.0160 -0.5627 0.5203
-0.0872 -0.5596 0.6846
-0.1087 -0.5427 0.6512
-0.1546 -0.5425 0.6381
-0.1753 -0.5598 0.4465
-0.0094 -0.5600 0.3211
0.0410 -0.5459 0.5165
-0.3095 -0.5556 0.2415
0.1305 -0.5487 0.1690
0.0015 -0.5322 0.6680
0.1163 -0.5648 0.2432
0.1356 -0.5440 0.2049
0.0588 -0.5660 0.3001
0.0250 -0.5622 0.2341
0.0040 -0.5675 0.3148
-0.0298 -0.5608 0.3354
-0.0282 -0.5665 0.2537
-0.0430 -0.5689 0.3075
-0.0520 -0.5679 0.2445
-0.0458 -0.5609 0.2164
-0.0486 -0.5692 0.1047
-0.0922 -0.5580 0.2827
-0.1033 -0.5460 0.2532
-0.1661 -0.5620 0.5032
-0.1055 -0.5733 0.1239
-0.1571 -0.5422 0.2889
-0.2256 -0.5524 0.4729
-0.1892 -0.5687 0.0922
-0.2207 -0.5642 0.1461
-0.2142 -0.5652 0.1204
-0.2133 -0.5701 0.0862
-0.2054 -0.5662 0.0623
-0.2818 -0.5501 0.2087
-0.2703 -0.5716 0.1365
-0.3695 -0.5674 0.3844
0.2480 -0.5673 0.7199
0.1803 -0.5566 0.3661
0.1404 -0.5601 0.7384
0.1215 -0.5619 0.2101
0.1141 -0.5525 0.2357
0.0922 -0.5677 0.7305
0.0829 -0.5606 0.3284
0.0150 -0.5637 0.7219
-0.0369 -0.5746 0.6814
-0.0451 -0.5645 0.6214
-0.0497 -0.5241 0.5998
-0.0640 -0.5539 0.6747
-0.1190 -0.5828 0.6161
-0.0398 -0.5628 0.0982
-0.1524 -0.5612 0.6446
-0.1206 -0.5779 0.1088
-0.1725 -0.5690 0.2646
-0.1810 -0.5642 0.2720
-0.2727 -0.5444 0.5561
-0.1724 -0.5901 0.0968
-0.2803 -0.5499 0.4103
-0.3561 -0.5641 0.5813
-0.3051 -0.5514 0.4042
-0.2686 -0.5937 0.1221
-0.3205 -0.5780 0.2351
-0.4260 -0.5602 0.5647
-0.3865 -0.5767 0.4097
0.2069 -0.5266 0.3535
0.1081 -0.5592 0.2626
0.0935 -0.5531 0.3234
-0.3934 -0.5714 0.5306
-0.3968 -0.5649 0.5513
-0.2295 -0.5613 0.0881
-0.1915 -0.5659 0.1236
-0.1982 -0.5659 0.1496
-0.2530 -0.5629 0.0824
-0.0811 -0.5675 0.1565
-0.2432 -0.5546 0.0581
-0.0380 -0.5418 0.1839
-0.0080 -0.5751 0.1399
0.0911 -0.5762 0.2867
0.0305 -0.5580 0.2051
0.0445 -0.5642 0.1592
0.0360 -0.5695 0.2951
0.0416 -0.5572 0.2642
0.0148 -0.5632 0.3489
0.0120 -0.5468 0.2821
-0.0078 -0.5570 0.3390
-0.0188 -0.5802 0.3133
-0.3864 -0.5695 0.5032
-0.4069 -0.5636 0.4920
-0.0602 -0.5355 0.3352
-0.0186 -0.5568 0.1169
-0.2844 -0.5431 0.2563
0.1402 -0.5623 0.3161
-0.0943 -0.5475 0.3054
-0.2624 -0.5759 0.1961
-0.1813 -0.5523 0.2867
-0.1735 -0.5539 0.2548
-0.2034 -0.5586 0.2842
-0.2696 -0.5438 0.2854
-0.2281 -0.5463 0.2970
-0.3023 -0.5463 0.1994
-0.2467 -0.5469 0.2921
-0.2453 -0.5501 0.2691
-0.1809 -0.5763 0.0776
-0.2983 -0.5647 0.2959
0.1909 -0.5635 0.7245
0.1541 -0.5786 0.7038
0.1397 -0.5523 0.6972
0.0680 -0.5674 0.5151
0.0541 -0.5743 0.6772
0.0136 -0.5578 0.3199
-0.1032 -0.5435 0.6303
-0.1269 -0.5786 0.1353
-0.1444 -0.5770 0.1018
-0.3582 -0.5516 0.6068
-0.3506 -0.5495 0.4099
-0.2538 -0.5545 0.0713
-0.0637 -0.5356 0.3540
0.2520 -0.5842 0.1918
-0.2834 -0.5691 0.1855
-0.3420 -0.5431 0.4563
-0.2524 -0.5365 0.2066
0.2037 -0.5951 0.2079
-0.2296 -0.5699 0.1704
0.1643 -0.5630 0.1888
-0.2070 -0.5511 0.1947
-0.2654 -0.5632 0.5254
-0.2677 -0.5536 0.5393
-0.1884 -0.5881 0.1873
0.1347 -0.5625 0.2365
-0.2506 -0.5461 0.5636
-0.1483 -0.5543 0.1594
0.0948 -0.5355 0.2156
-0.1941 -0.5533 0.5895
0.0282 -0.5334 0.6016
0.0451 -0.5717 0.1282
0.0022 -0.5642 0.6287
-0.0575 -0.5445 0.1522
-0.1292 -0.5529 0.6345
-0.0627 -0.5301 0.2793
0.0156 -0.5683 0.1455
-0.0386 -0.5465 0.2660
0.0053 -0.5322 0.3506
0.0344 -0.5424 0.3386
-0.1237 -0.5437 0.3215
0.0799 -0.5325 0.3462
-0.1840 -0.5427 0.3069
-0.2061 -0.5437 0.3018
0.1267 -0.5450 0.3858
0.1687 -0.5440 0.3944
-0.1070 -0.5500 0.1145
0.1726 -0.5287 0.7208
0.1687 -0.5286 0.3456
0.1279 -0.5679 0.1665
0.0293 -0.5584 0.5216
0.0507 -0.5424 0.1149
-0.0208 -0.5579 0.0532
-0.1874 -0.5758 0.6663
-0.2615 -0.5606 0.6024
-0.1865 -0.5392 0.2458
-0.3041 -0.5416 0.5933
0.0999 -0.5319 0.2590
-0.2592 -0.5553 0.2393
-0.0551 -0.5478 0.3607
-0.2368 -0.5701 0.0800
-0.2428 -0.5268 0.1789
-0.1725 -0.5561 0.1505
-0.0802 -0.5530 0.1485
-0.0871 -0.5438 0.1713
-0.1674 -0.5493 0.5923
-0.0749 -0.5461 0.2286
-0.0827 -0.5604 0.2597
0.1717 -0.5172 0.2086
0.1645 -0.5327 0.2587
-0.1081 -0.5577 0.5631
-0.0157 -0.5433 0.1901
0.1554 -0.5372 0.2081
-0.0075 -0.5409 0.2441
0.0391 -0.5710 0.1517
0.0800 -0.5399 0.1858
0.1044 -0.5476 0.1940
-0.3227 -0.5421 0.5670
-0.1561 -0.5517 0.4559
-0.1182 -0.5446 0.2984
-0.1598 -0.5465 0.5648
-0.0349 -0.5549 0.3249
-0.0186 -0.5397 0.3481
-0.3698 -0.5468 0.5601
-0.2679 -0.5571 0.2672
-0.3410 -0.5623 0.5279
0.0348 -0.5392 0.5826
-0.3226 -0.5589 0.5569
0.0224 -0.5432 0.6353
0.0464 -0.5331 0.3626
-0.0791 -0.5313 0.3279
-0.1357 -0.5466 0.2949
-0.3181 -0.5485 0.3017
-0.3001 -0.5553 0.3104
0.0131 -0.5515 0.3372
-0.0031 -0.5390 0.3775
0.1679 -0.5254 0.3617
-0.1910 -0.5450 0.3317
0.1284 -0.5398 0.3251
0.1344 -0.5554 0.1556
-0.1257 -0.5691 0.1166
-0.4026 -0.5405 0.5850
-0.3475 -0.5492 0.3917
0.0861 -0.5360 0.3097
-0.1908 -0.5451 0.1073
-0.1798 -0.5670 0.0707
-0.1930 -0.5733 0.1271
0.2260 -0.5387 0.2014
0.2000 -0.5289 0.1946
-0.1853 -0.5489 0.1993
0.1920 -0.5612 0.1707
0.1869 -0.5632 0.1946
-0.2512 -0.5431 0.4806
-0.1609 -0.5516 0.2064
0.0673 -0.5425 0.6708
0.0541 -0.5405 0.3427
-0.1299 -0.5430 0.3448
0.0264 -0.5436 0.3626
-0.0473 -0.1463 0.2125
-0.1756 -0.5486 0.6169
-0.0125 -0.5053 0.2592
-0.0046 -0.1459 0.1279
-0.0383 -0.5316 0.3393
0.0186 -0.5399 0.3839
0.0401 -0.5346 0.3871
0.0638 -0.1583 0.2582
-0.1505 -0.5436 0.3399
0.1868 -0.5297 0.3911
0.1312 -0.5731 0.1569
0.0903 -0.5245 0.2839
0.0541 -0.5430 0.3248
-0.0142 -0.5564 0.3119
-0.1484 -0.5371 0.6121
-0.0936 -0.5502 0.1252
-0.2983 -0.5279 0.4076
-0.3634 -0.5390 0.3802
-0.3029 -0.5394 0.2311
-0.2223 -0.5484 0.2744
0.2275 -0.5326 0.1782
-0.0966 -0.1699 0.2491
-0.2768 -0.5643 0.1525
-0.0867 -0.5677 0.1471
-0.4217 -0.5523 0.5518
-0.0336 -0.5375 0.1573
0.0049 -0.5402 0.1939
0.0281 -0.5468 0.2011
-0.0467 -0.5533 0.3725
-0.1072 -0.5381 0.3485
-0.4273 -0.5734 0.5480
0.0538 -0.1393 0.1798
-0.3126 -0.5458 0.2756
-0.0246 -0.5419 0.3727
0.1244 -0.5756 0.1829
-0.1464 -0.5750 0.0959
-0.0456 -0.0493 0.1571
-0.1097 -0.5645 0.1135
-0.1377 -0.5441 0.2929
-0.0403 -0.5434 0.1831
-0.0531 -0.5452 0.2337
-0.0451 -0.5431 0.2898
-0.0127 -0.5611 0.1656
-0.0194 -0.5581 0.1913
-0.3095 -0.5496 0.2525
0.0356 -0.0082 0.1201
0.1497 -0.5425 0.3477
0.1666 -0.5290 0.3314
0.1804 -0.5586 0.2183
-0.1383 -0.1978 0.2451
0.0258 -0.0207 0.1509
0.0156 -0.0449 0.1798
0.0145 -0.5463 0.2510
0.1232 -0.5561 0.2543
0.0430 -0.1223 0.1561
-0.0755 -0.5686 0.3651
-0.0070 -0.0071 0.1405
-0.0164 -0.0711 0.1175
0.1713 -0.5488 0.3548
-0.2898 -0.5594 0.2037
-0.0136 -0.0207 0.1567
-0.0121 -0.0713 0.1336
0.0214 -0.1087 0.1348
-0.0082 -0.0507 0.1693
-0.0384 -0.0357 0.1453
-0.0215 -0.0182 0.1322
-0.0245 -0.0158 0.1278
0.0115 0.0125 0.1309
0.0114 0.0124 0.1286
-0.0031 -0.0285 0.1550
-0.0171 -0.0148 0.1220
0.0267 -0.1520 0.2337
-0.0088 -0.0346 0.1555
-0.0177 0.0013 0.1186
0.0012 -0.0151 0.1360
-0.0076 -0.0112 0.1308
0.0144 -0.0308 0.1542
-0.0189 0.0007 0.1165
0.0035 -0.0365 0.1260
-0.0010 -0.0028 0.1133
-0.0420 -0.0580 0.1405
-0.0073 -0.0261 0.1536
-0.0045 -0.0100 0.1248
-0.0139 -0.0009 0.1205
-0.0098 -0.0338 0.1416
0.0091 -0.0349 0.1593
-0.0181 0.0028 0.1186
-0.0141 -0.0353 0.1520
-0.0118 0.0100 0.1045
-0.0103 0.0089 0.1103
-0.0002 -0.0102 0.1204
-0.0179 0.0062 0.1133
-0.0161 -0.0063 0.1057
-0.0186 -0.0306 0.1022

