-0.1969 -1.4433 0.1164
-1.1080 -1.3097 0.2764
-0.8179 -1.3491 0.1052
-1.2073 -1.3978 0.2798
-0.1205 -1.3637 -0.0821
-0.7314 -1.2538 0.0522
-0.6510 -1.3682 0.1314
-0.0913 -1.3473 0.0250
-0.9725 -1.3008 0.7291
-0.5694 -1.2978 -0.0221
-0.6423 -1.3992 -0.0813
-1.1863 -1.1322 -0.1514
-0.4203 -1.3774 0.2813
-1.0219 -1.1906 0.2033
-0.6620 -1.3733 -0.1840
-0.6395 -1.3887 0.0243
-0.6075 -1.3678 0.0483
-1.2134 -1.1884 0.5804
-0.0487 -1.3863 0.0971
-0.8611 -1.2766 0.5927
-0.8057 -1.3527 0.2973
-0.9531 -1.2675 0.7500
-0.4580 -2.3896 0.4097
-0.3649 -1.3680 -0.2280
-0.2106 -1.3057 0.1109
-0.4391 -1.3775 0.3158
-0.9303 -1.3502 0.5452
-0.3929 -1.2349 0.4914
-0.6040 -1.2278 0.0804
-0.1858 -1.3550 -0.0215
-0.7156 -0.4734 -0.0774
-0.6315 -0.4396 -0.1337
-0.7116 -0.4768 -0.0999
-0.0099 -1.2189 -0.0973
-0.6959 -1.2974 -0.0409
-1.1676 -1.5758 0.3666
-1.0311 -0.6837 -0.1614
-1.0855 -0.6830 -0.0182
-0.4936 -1.4723 0.4531
-1.1098 -0.6753 -0.0377
-1.2280 -0.7119 -0.0677
-0.3652 -0.3515 -0.0407
-0.2287 -1.1453 0.2335
-1.1096 -0.6722 -0.2361
-0.7414 -0.6346 -0.4981
-0.8155 -0.6886 -0.4737
-1.0353 -0.6679 -0.5405
-0.1944 -0.0973 -0.1047
-0.8634 -0.6893 -0.4483
-0.3077 -0.1534 -0.1501
-1.2478 -1.3834 0.3453
-1.2066 -1.4148 0.3112
-1.0803 -0.7156 -0.3062
-1.1030 -0.6577 -0.3216
-1.3285 -0.6688 -0.3586
-0.9859 -0.6820 -0.1982
-0.6340 -0.2885 -0.1239
-0.7364 -0.6008 -0.3929
-0.0992 -1.4022 -0.2380
-1.3591 -1.2488 -0.1178
-0.3668 -1.3300 0.5130
-0.7368 -1.4314 0.0392
-1.1472 -1.0524 -0.1569
-0.1151 -1.3159 0.0578
-0.8785 -0.6588 -0.6931
-0.8249 -0.6722 -0.6596
-0.8985 -0.6929 -0.5795
-1.0695 -0.6797 0.0152
-0.8993 -0.6599 -0.3526
-0.8915 -0.6302 -0.2576
-0.8803 -0.6398 -0.6321
-0.7839 -1.2110 -0.8016
-0.6998 -0.6135 -0.4715
-1.0619 -0.6472 -0.0657
-0.7080 -1.4868 -0.6879
-1.2693 -1.2501 -0.1690
-0.8060 -1.3864 0.1065
-0.9844 -1.1909 -0.7578
-0.6396 -1.4010 0.0177
-0.5866 -1.5216 -0.4463
-0.3056 -1.3597 -0.3691
-0.1443 -0.1296 -0.1324
-0.6198 -0.6408 -0.6875
-0.6594 -0.6471 -0.6820
-0.7191 -0.6326 -0.6501
-0.6954 -0.6114 -0.5242
-0.8648 -0.6725 -0.3914
-0.4124 -0.3306 -0.2035
-0.2783 -0.2118 -0.1334
-1.0098 -0.6672 -0.1067
-1.0332 -0.6742 -0.1415
-0.5272 -1.3444 -0.9059
-0.0559 -1.3706 -0.5260
-0.5464 -1.3350 -0.8864
-0.5418 -1.3470 -0.8709
-0.6510 -0.6427 -0.6944
-0.6097 -0.6044 -0.6118
-0.8737 -0.6560 -0.3163
-0.3108 -0.3095 -0.3024
-0.7438 -0.6473 -0.5231
-0.0445 -1.3737 0.1631
-0.8300 -0.6840 -0.4356
0.1229 -1.3666 -0.2418
0.1739 -1.2782 -0.3211
0.1010 -1.3456 -0.3962
-0.0193 -1.3976 -0.4863
-0.5561 -1.3496 -0.0454
-0.2658 -1.2913 -0.2154
0.0338 -1.3445 -0.0887
-0.2194 -1.4126 -0.5418
0.0630 -0.6728 -0.1893
-0.3211 -1.2365 -0.6393
-0.2911 -1.3328 -0.5466
-0.6736 -0.6485 -0.7184
-0.7119 -0.6500 -0.7094
-0.6469 -0.6449 -0.6455
-0.6766 -0.6390 -0.6305
-0.7158 -0.6184 -0.5618
-0.4334 -0.3293 -0.3661
-0.8851 -0.6642 -0.3772
-0.8511 -0.6496 -0.3364
-0.8433 -0.6344 -0.2548
-0.8650 -0.6041 -0.3004
-0.8100 -0.6521 -0.7690
-0.6886 -0.6250 -0.6303
-0.8086 -0.6042 -0.3508
-0.7531 -0.6360 -0.5369
-0.5630 -0.4248 -0.4352
-0.8784 -0.5417 -0.3033
-0.9207 -0.6097 -0.4199
-0.9468 -0.6657 -0.2161
-1.1084 -0.6762 -0.2910
-0.4615 -0.3312 -0.3164
-0.9875 -0.6287 -0.5275
0.2336 -1.2772 -0.3383
-0.1178 -1.3257 -0.2877
-0.5030 -1.3130 -0.7932
0.1963 -1.2581 -0.2714
-0.7879 -0.7430 -0.1316
-0.8413 -0.6109 -0.2557
-1.1691 -0.6310 -0.4348
-0.5037 -0.3326 -0.3727
-0.8694 -0.5992 -0.3320
-0.6909 -0.6284 -0.6734
-0.7236 -0.6118 -0.6796
-0.7216 -0.6144 -0.7030
-0.6673 -0.6419 -0.6556
-0.7702 -0.6323 -0.7350
-0.6988 -0.6241 -0.6638
-0.7785 -0.6066 -0.3601
-0.7190 -0.6160 -0.5949
-1.0269 -0.6191 -0.5948
-0.8863 -0.5881 -0.5283
-0.9063 -0.6157 -0.5158
-0.7081 -0.6218 -0.5852
-0.7297 -0.6207 -0.5970
-0.7953 -0.6170 -0.6307
-0.7668 -0.6452 -0.4785
-0.8764 -0.6142 -0.5888
-0.8357 -0.6158 -0.5475
-0.7985 -0.6252 -0.5299
-0.8279 -0.5617 -0.7326
-1.0227 -0.6633 -0.7443
-0.8070 -0.5957 -0.7524
-0.8853 -0.6063 -0.5447
-0.7950 -0.8720 -0.0514
-0.5309 -0.9147 0.0541
-0.3829 -1.0551 0.2036
-0.5643 -1.1563 -0.0253
-0.2970 -1.2162 -0.3637
-0.5025 -1.3197 -0.9265
-0.3637 -1.2544 -0.0855
-0.2572 -1.2252 -0.3691
-0.0648 -1.2498 -0.3150
-0.5421 -0.2086 0.1452
-1.1672 -0.5927 -0.4715
-1.1782 -0.5935 -0.5035
-0.8749 -0.6304 -0.3536
-1.0219 -0.6471 -0.4303
-1.0295 -0.6287 -0.5008
-1.0351 -0.6588 -0.5973
-0.8411 -0.6418 -0.4441
-0.7714 -0.6457 -0.7665
-0.7379 -0.6412 -0.4667
-0.8243 -0.6476 -0.7104
-0.6953 -0.6459 -0.6122
-1.0257 -0.6422 -0.8423
-1.0147 -0.6006 -0.8336
-0.8597 -0.6440 -0.6819
-0.7078 -0.6471 -0.5902
-1.0741 -0.6360 -0.7825
-0.7391 -0.6387 -0.5564
-0.8841 -0.6539 -0.7013
-0.9167 -1.2673 0.1168
-0.9490 -0.6229 -0.2453
-0.9127 -0.6353 -0.2417
-0.4970 -0.3498 -0.5446
-0.8474 -0.6362 -0.3048
-0.8248 -0.6462 -0.3158
-0.7194 -0.6353 -0.6555
-0.7491 -0.6502 -0.6407
-1.3489 -1.0617 -0.6813
-0.7793 -0.6249 -0.5172
-0.7466 -0.6291 -0.5303
-0.9397 -0.6380 -0.2541
-0.4522 -1.3175 -0.1121
-0.5008 -1.3746 -0.1502
-0.3816 -1.3966 -0.5583
-0.9828 -0.6179 -0.2846
-1.1024 -0.6368 -0.4008
-0.6402 -0.3600 -0.3681
-0.8676 -0.6472 -0.7704
-1.1064 -0.6558 -0.6322
-0.8987 -0.6469 -0.5303
-1.1452 -0.6760 -0.8776
-0.9104 -0.6275 -0.5779
-0.9863 -0.6628 -0.6468
-1.1915 -0.6818 -0.8727
-0.9834 -0.6414 -0.6739
-0.9234 -0.6360 -0.2217
-0.8935 -0.6294 -0.2097
-0.8720 -0.6385 -0.2181
-0.7379 -0.6514 -0.7236
-0.8020 -0.6652 -0.7338
-0.6967 -0.6469 -0.6708
-0.9655 -0.6532 -0.3001
-0.8943 -0.6365 -0.2738
-0.8606 -0.6284 -0.2608
-0.7463 -0.6583 -0.6449
-0.9969 -0.6418 -0.3271
-0.9525 -0.6140 -0.3395
-0.9465 -0.6484 -0.3226
-0.8662 -0.6423 -0.2829
-0.8714 -0.6700 -0.7120
-0.9999 -0.6591 -0.3461
-1.0355 -0.6588 -0.3683
-0.8809 -0.6436 -0.3183
-0.8070 -0.6578 -0.6717
-0.9824 -0.6191 -0.4140
-0.6363 -0.3654 -0.3929
-0.8199 -0.6591 -0.6496
-0.7842 -0.6588 -0.5775
-0.8171 -0.6324 -0.6443
-0.9981 -0.6618 -0.4596
-0.7718 -0.6493 -0.5952
-0.8459 -0.6541 -0.4098
-0.8415 -0.6662 -0.6072
-0.8173 -0.6165 -0.4337
-0.9188 -0.6688 -0.4785
-0.8412 -0.6494 -0.4677
-0.7286 -0.6443 -0.5444
-0.8780 -0.6568 -0.5933
-1.0562 -0.6080 -0.2906
-0.8416 -0.6341 -0.7830
-0.7823 -0.6322 -0.7118
-1.0311 -0.6153 -0.3651
-0.9345 -0.6628 -0.6957
-0.9411 -0.6623 -0.7305
-0.8177 -0.6221 -0.6173
-0.8974 -0.6661 -0.6073
-0.9252 -0.6248 -0.5380
-0.9269 -0.6099 -0.2613
-0.8097 -0.6572 -0.4166
-0.9494 -0.6268 -0.4979
-0.9153 -0.6196 -0.4269
-0.8226 -0.6119 -0.3545
-0.8448 -0.6109 -0.3671
-0.9179 -0.6132 -0.4033
-0.8831 -0.6310 -0.6412
-1.0689 -0.6019 -0.3000
-0.6672 -0.3534 -0.3325
-1.0572 -0.6150 -0.3111
-0.8385 -0.6311 -0.7245
-0.8269 -0.6411 -0.7743
-1.1130 -0.6432 -0.3266
-0.6652 -0.3397 -0.3164
-0.5427 -1.2832 -0.1140
-0.2194 -1.2637 -0.4037
-0.2007 -1.3884 -0.5445
-1.0526 -0.6976 -0.1315
-0.9207 -0.6032 -0.7383
-1.1153 -0.6201 -0.4344
-1.0282 -0.6255 -0.6158
-1.1893 -0.6196 -0.4878
-1.1956 -0.6098 -0.4433
-0.5990 -0.3008 -0.3690
-0.4388 -0.2146 -0.4294
-0.5107 -0.2972 -0.3461
-0.1606 -0.1307 -0.1292
-0.7233 -0.6270 -0.4622
-0.5239 -1.2446 -0.0688
-0.2884 -0.2432 -0.3338
-0.3704 -0.2564 -0.4654
-0.7389 -0.7165 -0.6672
-0.5220 -0.4572 -0.5625
-0.7435 -0.6591 -0.6080
-0.4161 -0.3157 -0.4401
-0.6996 -0.6458 -0.5921
-0.6300 -0.4142 -0.6110
-0.7277 -0.5468 -0.7288
-0.6561 -0.6547 -0.7089
-0.2807 -0.9351 -0.2825
-0.1381 -0.3515 -0.3837
-0.1344 -0.2618 -0.3763
-0.3140 -0.4006 -0.3815
-0.2106 -0.2747 -0.3426
-0.4054 -0.2630 -0.5053
-0.2798 -0.1453 -0.4340
-0.3470 -0.2243 -0.4644
-0.2217 -0.1233 -0.3647
-0.1854 -0.1211 -0.3714
-0.1683 -0.1617 -0.3656
-0.1912 -0.1324 -0.3552
-0.4705 -0.2696 -0.5125
-0.3463 -0.4423 -0.2841
-0.2635 -0.2305 -0.3434
-0.2598 -0.2579 -0.4130
-0.1827 -0.4064 -0.3984
-0.2475 -0.2044 -0.3290
-0.1909 -0.0975 -0.4059
-0.1932 -0.0614 -0.3720
-0.2373 -0.1479 -0.3445
-0.2111 -0.2429 -0.4959
-0.6019 -0.6080 -0.6699
-0.7323 -0.6435 -0.7198
-0.6084 -0.5771 -0.5653
-0.6402 -0.6007 -0.6920
-0.6834 -0.6212 -0.7148
-0.7228 -0.6408 -0.7390
-0.7526 -0.5983 -0.7451
-0.8065 -0.6204 -0.7646
-0.8050 -0.6050 -0.7319
-0.6030 -0.5664 -0.6391
-0.5876 -0.5764 -0.6058
-0.5694 -0.5815 -0.6501
-0.6502 -0.6201 -0.6476
-0.5433 -0.5313 -0.6413
-0.6552 -0.5196 -0.6947
-0.1806 -0.5645 -0.6182
-0.7231 -0.5550 -0.6478
-0.7370 -0.6267 -0.7430
-0.6499 -0.5649 -0.5398
-0.3005 -0.4162 -0.2687
-0.5977 -0.5722 -0.6111
-0.1755 -1.1321 -0.6762
-0.7486 -0.6104 -0.7411
-0.0982 -1.2801 -0.5584
-0.0249 -1.3624 -0.4355
-0.5203 -0.8524 -0.1820
-0.2679 -1.2806 -0.3414
-0.6337 -1.3174 -0.5962
-0.2744 -1.3350 -0.4368
-0.1132 -1.2547 -0.3601
-0.0988 -1.2882 -0.7436
-0.4114 -0.4876 -0.9753
-0.6326 -0.6192 -0.6889
-0.6177 -0.5227 -0.6764
-0.0991 -1.2396 -0.3524
-0.3997 -1.2485 -0.2453
-0.0315 -1.1456 -0.4952
-0.3138 -1.1678 -0.7069
-0.6251 -1.2886 -0.9495
-0.6871 -0.6325 -0.6028
-0.8204 -0.5701 -0.5388
-0.6575 -0.6049 -0.6644
-0.6078 -0.6138 -0.6719
-0.9299 -0.6213 -0.4013
-0.7810 -0.3565 -0.4615
-0.9319 -1.4102 -0.0656
-0.6922 -0.5486 -0.5312
-0.6429 -0.5653 -0.5062
-1.1683 -0.5665 -0.3279
-1.5479 -0.8375 -0.6410
-0.9873 -0.6189 -0.4071
-2.2821 -0.8182 -0.6484
-0.8751 -0.4139 -0.2284
-0.9796 -0.4609 -0.2511
-0.9351 -0.4699 -0.4826
-0.8444 -0.4252 -0.3104
-0.8593 -0.4355 -0.3475
-0.8348 -0.4421 -0.2232
-0.7209 -0.3833 -0.3789
-0.5427 -0.1715 -0.3671
-0.7499 -0.6230 -0.4542

