-1.1908 -1.2524 0.6354
-1.0822 -1.1214 0.4754
-1.4018 -1.0712 0.1233
-1.1503 -1.0800 0.7702
-1.1037 -1.2062 0.5682
-0.5760 -0.9183 0.2969
-0.8747 -0.7653 -0.3361
-1.1789 -1.0084 -0.4249
-0.6106 -1.0740 0.8619
-1.3723 -1.0568 0.2209
-0.3227 -1.2642 0.5639
-0.5097 -0.9143 0.0813
-0.3081 -1.0879 0.2794
-1.1232 -0.9074 0.2273
0.1026 -0.0519 0.0587
-0.4798 -1.1084 0.6666
-0.0430 -1.0701 -0.0704
-0.2455 -1.2258 0.3682
-1.1054 -1.1399 0.5513
-0.9380 -1.2229 0.1453
0.0512 -0.0637 0.0739
-0.3377 -1.0965 0.7172
-0.3053 -1.5215 -0.0189
-0.5456 -1.2663 -0.3580
-0.9968 -1.1034 0.9344
-0.6027 -1.1893 0.9373
-0.4053 -1.0556 0.6380
0.0689 -0.0507 0.0834
-0.9815 -1.2341 0.3087
-0.8137 -1.0462 0.3652
-0.7081 -1.1422 0.9327
-0.7450 -1.0921 0.8980
-0.7178 -1.1304 0.7568
-0.2263 -1.0499 -0.1837
-0.5788 -0.3866 0.0846
-0.2686 -0.1390 0.1690
-0.0209 -0.2355 0.2267
-0.6261 -1.0858 0.7243
-0.9909 -1.0016 0.5330
-0.5170 -0.8636 0.0558
-0.3720 -0.5118 0.3715
-0.4116 -0.5809 0.2032
-0.0878 -0.5625 0.0140
-1.6569 -0.2594 0.4847
-1.2119 -0.3385 0.3953
-1.1438 -1.0852 0.7042
-0.4328 -1.0483 0.5717
-0.3181 -0.9117 0.3709
-1.5643 -0.2902 0.3738
-0.5289 -1.2144 0.6535
-0.8895 -1.0860 0.5429
-1.1306 -1.0825 0.7582
-0.7900 -0.0949 -0.4145
-1.7961 -0.4534 0.5500
-0.4354 -1.1091 0.3652
0.0967 0.0147 0.0300
0.0740 -0.0483 -0.0156
-0.4002 -0.9318 0.2803
-2.1200 -0.3355 0.4876
-2.0592 -0.3506 0.4008
-2.2948 -0.4446 -0.0329
-2.0268 -0.4294 -0.2258
0.0551 0.2034 0.0658
-0.2994 -1.0132 0.6895
-0.8618 -0.7041 -0.4313
-1.4247 -1.2406 -0.5369
-0.8444 -1.5195 -0.3406
-0.1110 0.0380 0.1507
0.0439 -0.4410 -0.0432
-2.9353 -0.6704 0.0016
-0.6476 -1.6297 -0.3857
-0.7769 -1.2081 0.8728
0.0115 0.2636 0.1085
0.0663 0.2751 0.0886
-1.6585 -0.0549 0.4502
-1.0252 -0.4482 0.2000
-1.1476 -0.4374 0.1736
-1.2581 -0.4644 0.1688
-1.0563 -0.4529 0.1650
-1.1331 -0.5230 0.0559
-1.0535 -0.4745 -0.0222
-1.0688 -0.5440 -0.0323
-1.1260 -0.5349 0.0931
-0.9785 -0.4725 -0.1862
-0.1597 -0.0012 0.2101
-1.8476 -0.4658 0.6258
-2.0635 -0.1374 0.4839
-2.1253 -0.0532 0.4549
-2.1298 -0.0564 0.4082
-0.9097 -0.4728 -0.4902
-2.2664 -0.4696 0.6949
-1.1331 -0.4763 0.1929
-1.0435 -0.5504 -0.4073
-0.9839 -0.4664 0.0537
-1.3392 -0.1857 -0.0991
-0.1295 -0.1380 0.1263
-0.0931 0.0941 0.1431
-0.5083 -0.0621 0.0441
-1.9723 -0.4717 0.4376
-1.7003 -0.4528 0.6389
-1.7069 -0.4685 0.4475
-1.3442 -0.4060 0.1018
-1.3024 -0.4537 0.1720
-1.1785 -0.4324 -0.5443
-1.1197 -0.4687 0.0328
-1.1014 -0.4534 -0.5185
-1.0661 -0.4203 0.1500
-0.9912 -0.4496 0.0182
-1.0024 -0.4729 -0.2226
0.0706 0.2618 0.0883
-0.8575 -0.4725 -0.4802
-0.9880 -0.4709 -0.1303
-0.0852 0.2945 0.1040
-1.0879 -1.0754 0.4683
-1.1211 -0.5246 -0.0189
-1.1012 -0.5033 0.0469
-0.9799 -0.5082 -0.3765
-1.0338 -0.5408 -0.4982
-0.8875 -0.4456 -0.4632
-1.0166 -0.5085 -0.0320
-1.1044 -0.5338 0.0200
-1.0023 -1.2064 0.3142
-1.1033 -0.5086 0.2133
-1.1662 -0.5715 0.0893
-0.8707 -1.1293 -0.4570
-1.0705 -0.5349 -0.1374
-0.9709 -0.5160 -0.2678
-0.6518 -1.2311 -0.5411
-1.0729 -1.0746 0.4381
-1.0044 -0.5173 -0.3145
-0.7433 -1.2226 -0.6305
-0.7897 -1.1384 0.4417
-0.7267 -1.1931 -0.2623
-1.0696 -0.4736 -0.5084
-1.1138 -0.5201 -0.1457
-1.1825 -0.5146 -0.5608
-0.9536 -0.4018 0.1390
-1.0833 -1.1712 0.5518
-1.2142 -0.4844 -0.5534
-0.8926 -1.1933 -0.7094
-1.1693 -0.4907 0.1648
-0.8927 -0.5023 -0.3857
-0.9937 -0.5305 -0.4519
-1.0403 -0.4793 0.2016
-0.8695 -1.2355 -0.6963
-1.1510 -1.0616 0.4359
-1.8184 -0.0673 -0.9901
-2.0161 -0.1996 -1.1082
-2.2245 -0.2087 -1.2584
-2.1119 -0.1619 -1.0677
-2.6804 -0.1414 0.5029
-0.9840 -0.4733 -0.4982
-2.7272 -0.1528 0.4505
-2.4187 -0.4372 -1.4052
-1.7210 -0.4671 0.4411
-1.3504 -0.4883 -0.5845
-1.3007 -0.4951 0.1744
-1.0988 -0.5086 -0.0257
-0.8655 -0.4722 -0.4735
-0.8284 -1.1318 0.2259
-1.1113 -0.5009 0.1091
-1.2438 -0.5191 0.0486
-0.9743 -0.4643 -0.1797
-1.1879 -0.5055 0.1654
-0.8475 -1.1006 -0.6648
-1.2375 -0.5037 -0.0475
-1.1392 -0.5142 0.0060
-1.0201 -0.4002 -0.2783
-1.2218 -0.5461 -0.1020
-1.0509 -1.0927 0.4658
-0.9906 -0.4913 0.0285
-1.1574 -0.4980 0.2203
-1.1022 -0.4861 -0.4486
-1.0823 -0.4884 0.0430
-1.1540 -0.6032 -0.5724
-0.7385 -1.2272 -0.2673
-1.0253 -0.4957 0.1220
-1.4392 -0.5046 -0.6100
-1.2297 -0.4890 -0.1412
-1.2364 -0.4667 0.0373
-1.4262 -0.5044 -0.6325
-1.3936 -0.5495 0.0696
-1.2247 -0.4951 -0.2035
-1.7093 -0.4292 0.3806
-1.2358 -0.4847 -0.0825
-1.2828 -0.4829 0.0009
-1.5647 -0.5143 0.1317
-1.5894 -0.5133 0.0906
-1.1251 -1.2104 0.5316
-1.2163 -0.4987 -0.1058
-1.1664 -0.5323 -0.2890
-1.4036 -0.4772 0.1083
-0.8766 -1.0353 -0.6915
-1.3907 -0.4752 0.1458
-1.2055 -0.4717 0.1786
-0.8784 -1.1355 -0.4648
-1.4398 -0.4813 -0.5902
-1.2309 -0.4702 -0.5088
-1.2605 -0.4678 -0.5501
-1.1985 -0.4894 -0.3459
-1.0414 -0.4790 -0.2532
-0.9494 -0.4778 -0.1183
-1.1936 -0.4984 -0.2259
-1.2680 -0.5068 0.0773
-1.0648 -0.4828 -0.1401
-1.2479 -0.4791 -0.3570
-1.3860 -0.4837 -0.4831
-1.0755 -0.4918 0.1436
-1.3673 -0.4855 -0.4512
-1.0356 -1.2137 0.1095
-0.9671 -0.4637 -0.0303
-1.1048 -0.5038 0.2315
-1.1231 -0.4793 -0.0330
-0.9705 -0.4983 -0.0263
-0.9787 -0.4959 -0.0592
-0.9293 -0.4689 -0.0841
-0.9188 -0.4913 -0.2333
-1.1198 -0.4983 0.1706
-0.8606 -0.4911 -0.4703
-0.9704 -0.4929 -0.3066
-0.8596 -1.1523 0.1773
-0.9188 -0.4830 -0.3216
-2.1808 -0.5348 -1.1587
-1.5168 -0.4946 -0.1368
-1.3091 -0.4669 -0.2242
-1.5011 -0.4795 -0.0946
-1.4342 -0.4892 -0.2844
-1.3562 -0.4910 -0.1677
-1.4835 -0.5186 -0.1251
-1.3423 -0.4888 0.0904
-1.3483 -0.5087 -0.0404
-1.3005 -0.5038 0.1059
-1.3973 -0.4882 -0.0095
-1.3992 -0.5000 -0.2109
-1.3681 -0.4958 0.1606
-1.3553 -0.5181 -0.4612
-1.3686 -0.5387 -0.5383
-1.3546 -0.4580 -0.0676
-1.3597 -0.4741 -0.5365
-1.0643 -1.1575 0.4398
-0.9994 -0.4755 0.1546
-0.8140 -1.1198 0.1754
-1.0945 -0.4647 -0.0591
-1.0257 -0.4691 -0.5078
-0.9649 -1.2498 -0.3040
-2.5309 -0.4938 0.4351
-2.3007 -0.6972 -1.2132
-2.4242 -0.6910 -0.9819
-2.5235 -0.5361 -1.0610
-1.5982 -0.5164 0.1489
-1.4369 -0.4731 0.1340
-1.5807 -0.5489 0.1099
-1.5124 -0.4963 0.0051
-1.4505 -0.4819 -0.0202
-1.3160 -0.4646 -0.0106
-1.4454 -0.4834 -0.0828
-1.4006 -0.4840 -0.2453
-1.1895 -0.4953 -0.0685
-1.1383 -0.4835 -0.4260
-1.2102 -0.4788 -0.3806
-1.2978 -0.4965 -0.4080
-1.1361 -0.4905 -0.3276
-1.1944 -0.4880 -0.1660
-1.1118 -0.4860 -0.2761
-1.1505 -0.4829 -0.1887
-1.1759 -0.4932 -0.2826
-1.2185 -0.5000 -0.2641
-1.2583 -0.4923 -0.1784
-1.3124 -0.5270 -0.1287
-1.3181 -0.4858 -0.5333
-2.4714 -0.4527 0.4573
-2.4347 -0.5330 0.4692
-2.5495 -0.4629 0.4261
-2.3268 -0.5761 0.4820
-1.4444 -0.4511 0.1422
-1.5058 -0.4624 0.0834
-1.5462 -0.4616 0.0784
-1.3669 -0.4523 -0.3286
-1.5007 -0.5555 -0.4808
-1.4560 -0.5544 -0.5642
-1.2552 -0.5104 0.1873
-1.2618 -0.4653 0.1632
-1.0807 -0.4824 -0.5171
-2.6124 -0.6263 0.3786
-2.7846 -0.6457 0.3808
-2.4885 -0.6576 0.4504
-1.4684 -0.4762 -0.0553
-1.5192 -0.4834 0.1255
-1.4434 -0.4807 -0.5920
-0.9194 -0.5004 -0.2335
-1.0286 -0.5277 -0.3683
-1.1632 -0.4877 -0.0026
-1.2957 -0.4834 -0.3434
-1.2839 -0.5274 -0.3474
-1.3913 -0.4908 -0.3966
-1.2934 -0.4861 -0.5047
-0.9875 -0.4826 -0.2157
-1.1169 -0.5067 0.1162
-1.2568 -0.4735 0.0330
-1.0952 -0.4985 0.0450
-0.9953 -0.4897 0.0247
-1.0275 -0.5050 -0.1340
-1.0201 -0.5100 -0.1960
-3.5505 -0.7382 0.4238
-1.4354 -0.5055 -0.2550
-1.3124 -0.5060 0.1975
-1.3073 -0.5059 -0.0635
-1.2336 -0.4733 -0.5670
-1.0181 -0.4875 0.1546
-1.2899 -0.5192 0.1476
-1.2125 -0.4814 0.1081
-1.0986 -0.4661 0.0060
-1.1589 -0.5099 -0.0369
-1.2631 -0.5036 -0.0839
-1.0451 -0.5131 -0.0716
-0.9750 -0.5036 -0.1224
-1.2418 -0.5074 -0.2090
-1.1014 -0.4904 -0.1800
-1.0778 -0.4409 -0.1982
-0.9579 -0.4930 -0.1802
-1.1302 -0.4773 -0.3240
-1.2868 -0.5326 -0.3150
-0.9725 -0.4885 -0.0725
-1.0650 -0.5296 -0.3403
-1.0739 -0.5030 -0.3692
-1.3274 -0.4944 0.1271
-1.3940 -0.4928 -0.2116
-1.2622 -0.4672 0.0928
-0.9931 -0.5086 -0.2831
-1.0167 -0.4532 -0.3059
-0.9141 -0.3936 -0.3224
-1.0316 -0.4919 -0.0715
-1.0894 -0.5036 -0.3010
-1.1163 -0.4907 -0.1198
-1.1723 -0.5103 -0.2574
-1.1695 -0.5195 -0.3449
-1.1480 -0.4974 -0.0370
-1.0828 -0.5276 0.0219
-1.1300 -0.4641 -0.4206
-0.9728 -0.4652 -0.3978
-0.9596 -0.5011 -0.1665
-1.2284 -0.5061 0.0451
-1.2298 -0.4945 -0.2064
-1.2222 -0.4829 0.1781
-1.2804 -0.4792 -0.0637
-1.4087 -0.5033 -0.2165
-1.2763 -0.5218 -0.3106
-1.4844 -0.5104 -0.6198
-1.0114 -0.4966 0.0900
-1.1838 -0.5103 -0.1977
-1.0882 -0.4846 -0.2392
-1.2083 -0.5065 -0.4224
-1.0415 -0.4822 -0.0151
-0.9726 -0.4968 -0.0309
-1.0404 -0.5257 0.0617
-1.4492 -0.5042 -0.1897
-1.4649 -0.5165 -0.3640
-1.4377 -0.4884 -0.2870
-1.5107 -0.4982 -0.2045
-1.2991 -0.4957 0.1917
-1.4118 -0.5001 -0.0737
-1.3990 -0.5340 -0.1428
-1.4475 -0.4752 -0.4395
-1.4454 -0.4635 -0.4627
-1.4637 -0.4826 -0.3272
-1.1128 -0.5032 -0.1847
-1.1682 -0.5070 -0.5636
-1.1215 -0.4448 0.0899
-1.0303 -0.4899 -0.2254
-1.0621 -0.4946 -0.2628
-1.0103 -0.4842 -0.2760
-1.1665 -0.4900 -0.3735
-1.0932 -0.4844 -0.5221
-1.4592 -0.4879 -0.0860
-1.5297 -0.4927 -0.0976
-1.5205 -0.5051 -0.0593
-1.6126 -0.5516 0.0674
-1.4949 -0.5090 0.1398
-1.5167 -0.5019 -0.3088
-1.4943 -0.4479 -0.2065
-1.5306 -0.5308 -0.0230
-1.4057 -0.4842 -0.2473
-1.3943 -0.5022 -0.2776
-1.4135 -0.5293 -0.5488
-1.3553 -0.5131 0.1924
-1.4401 -0.5125 -0.0123
-1.2742 -0.4879 -0.4655
-1.3958 -0.4751 -0.5865
-1.3514 -0.4845 -0.5818
-1.2102 -0.5109 -0.0723
-1.2952 -0.5087 -0.1237
-1.2678 -0.4959 -0.1837
-1.2392 -0.4858 -0.3265
-1.2007 -0.5194 0.1674
-1.1205 -0.5110 0.1138
-1.1674 -0.5063 0.0367
-1.2183 -0.4730 0.0114
-1.1089 -0.5120 -0.0849
-1.1895 -0.5040 -0.1352
-1.0801 -0.4921 -0.1442
-1.0812 -0.5065 -0.2087
-0.9672 -0.5072 -0.1847
-0.9750 -0.5091 -0.3835
-1.2325 -0.5864 -0.5695
-1.0321 -0.5253 -0.5379
-2.3026 -0.5812 -0.9299
-1.5569 -0.5091 -0.1734
-1.5612 -0.4992 0.0284
-1.5140 -0.4956 0.0049
-1.4565 -0.4994 -0.1222
-1.5345 -0.5028 -0.1383
-1.4087 -0.4831 0.1425
-1.3705 -0.4500 0.1024
-1.2664 -0.4845 -0.2776
-1.4328 -0.4949 -0.3787
-1.4628 -0.4944 -0.4169
-1.3681 -0.5268 -0.4651
-1.3283 -0.4750 0.0889
-1.0000 -0.5334 -0.0274
-1.3347 -0.5093 -0.0979
-1.3369 -0.5221 -0.1647
-1.3151 -0.5157 -0.2269
-1.2421 -0.5066 -0.2091
-1.3618 -0.5068 -0.3047
-1.2109 -0.5220 -0.2962
-1.1697 -0.4824 -0.3113
-1.3809 -0.5191 -0.5008
-1.3574 -0.5294 -0.5335
-1.4032 -0.4880 -0.6183
-0.9422 -0.5087 -0.3763
-1.0965 -0.5115 -0.0263
-1.0658 -0.5184 -0.1733
-1.0075 -0.4999 -0.3521
-0.9707 -0.4683 -0.4006
-1.1235 -0.4517 -0.5142
-0.9226 -0.5201 -0.3778
-2.2563 -0.6734 -1.1887
-1.5556 -0.4893 0.0842
-1.0242 -0.5044 0.1630
-1.5840 -0.5351 0.1631
-1.5727 -0.4995 0.1429
-1.3511 -0.5200 0.0662
-1.4610 -0.4786 0.0390
-1.3528 -0.4876 -0.0103
-1.4157 -0.4765 -0.0490
-1.4511 -0.5244 -0.1543
-1.5078 -0.5162 -0.1658
-1.4896 -0.4940 -0.2665
-1.4841 -0.5158 -0.4884
-1.1517 -0.4912 -0.4383
-0.9025 -1.1937 -0.4912
-1.2838 -0.4829 -0.5665
-1.1916 -0.4670 -0.5428
-1.0544 -0.5199 0.0951
-1.3513 -0.5277 0.1809
-1.0139 -0.4997 -0.1918
-1.5760 -0.5669 -0.3839
-0.9735 -0.4992 -0.1229
-1.5052 -0.4762 0.1220
-2.3574 -0.5848 -1.2103
-1.0743 -1.1351 0.3986
-1.1658 -0.4329 0.1309
-0.9488 -0.5144 -0.2114
-0.7879 -1.1658 -0.4739
-0.9079 -0.5055 -0.4318
-0.8796 -1.1704 -0.7036
-1.1192 -0.5371 0.1546
-0.9824 -0.5030 -0.3158
-2.9770 -0.7037 0.4129
-2.3440 -0.4911 -1.2515
-2.2603 -0.4833 -1.1668
-1.0166 -0.4817 0.2176
-1.4303 -0.4952 0.1705
-1.3400 -0.4754 0.1560
-1.2880 -0.5024 0.0368
-1.3105 -0.4769 0.0242
-1.4573 -0.4889 -0.0841
-1.3155 -0.5077 -0.0619
-1.2740 -0.4763 -0.1562
-1.4070 -0.5020 -0.2158
-1.4678 -0.4868 -0.3317
-1.3040 -0.4987 -0.4082
-0.9298 -0.5013 -0.2990
-0.9078 -1.1698 -0.4261
-1.1565 -0.4784 -0.4699
-0.9861 -0.4795 -0.5048
-0.8916 -0.5004 -0.4950
-2.3360 -0.5837 -1.2576
-2.4475 -0.2407 -0.9138
-1.0072 -1.0635 0.4099
-1.1492 -0.4914 0.1984
-1.5302 -0.4912 0.1268
-1.4851 -0.4989 -0.0219
-1.3708 -0.4723 -0.1445
-1.0820 -0.4971 -0.1444
-1.4141 -0.4751 -0.2827
-0.9908 -0.4816 -0.1849
-1.0691 -0.5027 -0.2628
-1.4390 -0.4803 -0.4072
-1.2089 -0.4520 -0.3465
-1.0544 -0.5059 -0.3287
-1.0210 -0.4897 -0.3853
-1.0066 -0.4682 -0.4746
-0.9461 -0.5000 -0.5041
-2.7627 -0.3305 -0.9130
-2.4183 -0.4537 0.4139
-2.5621 -0.4549 0.4244
-1.7313 -0.4391 -0.2320
-1.5578 -0.4965 0.0297
-1.5547 -0.4996 -0.0324
-2.1892 -0.5532 -1.1580
-1.0706 -1.0545 0.4605
-1.0740 -1.0861 0.4420
-0.9348 -1.1447 -0.7551
-1.2271 -1.1684 0.4707
-1.0672 -0.4793 0.2058
-1.0159 -0.4951 0.1575
-0.8622 -1.2056 0.2306
-1.2103 -1.4916 -0.8780
-1.0861 -0.4844 -0.5242
-1.1352 -0.4716 -0.5323
-1.1157 -0.4941 -0.1185
-1.5154 -0.5547 -0.6805
-1.2549 -0.4859 -0.5269
-1.1511 -0.4834 -0.1902
-1.0980 -0.4911 -0.1795
-1.2821 -0.4937 -0.4675
-1.2520 -0.4937 -0.2410
-1.1911 -0.4935 -0.2263
-1.0872 -0.5124 -0.3727
-1.1695 -0.4938 -0.3745
-0.9654 -0.5041 -0.1829
-1.2137 -0.4933 -0.2620
-1.1518 -0.4927 -0.2501
-1.2542 -0.5025 -0.3031
-1.2456 -0.4820 -0.0255
-1.2670 -0.4876 -0.2760
-0.8167 -1.1428 0.1782
-1.2137 -0.4844 -0.0478
-1.2462 -0.4843 -0.4230
-1.2232 -0.5017 0.0460
-1.1018 -0.5031 -0.0844
-1.3382 -0.5105 -0.5178
-1.2530 -0.4861 -0.1794
-1.2066 -0.5289 -0.1027
-1.0417 -0.4872 -0.4263
-1.2098 -0.4902 -0.1085
-0.9920 -0.4770 -0.4420
-1.2357 -0.4919 -0.1442
-1.1228 -0.4884 -0.2155
-1.1740 -0.4941 0.1625
-1.0422 -0.4595 0.0460
-1.2187 -0.4758 -0.4815
-1.1353 -0.4880 -0.0355
-1.3733 -0.4765 -0.5702
-0.8626 -1.1173 -0.6754
-1.1149 -1.2159 0.5674
-1.0169 -1.2370 0.3218
-0.8253 -1.1976 0.1906
-0.7861 -1.2158 -0.2503
-1.1053 -0.4894 -0.3551
-1.0965 -0.4943 -0.4220
-0.9839 -0.4918 -0.4115
-0.9525 -0.4754 -0.4623
-1.1065 -1.2009 0.4755
-0.9511 -0.4427 0.0580
-2.4517 -0.6752 -1.4301
-1.4404 -0.4769 0.1328
-1.0833 -0.4971 -0.0217
-0.6550 -1.1241 0.2012
-0.6287 -1.1078 0.1140
-0.5897 -1.0462 0.3875
-0.8742 -1.1384 -0.4709
-0.8871 -0.4412 -0.4041
-0.8657 -0.4573 -0.4356
-0.7092 -1.0997 -0.6004
-0.7042 -1.1416 -0.2511
-0.7254 -1.1921 0.3684
-1.1285 -0.4945 -0.0608
-1.0877 -1.0844 0.4995
-0.4658 -1.1282 -0.3196
-0.5177 -1.1931 -0.3152
-1.3803 -0.4996 0.1832
-1.3408 -0.5316 0.1035
-2.4973 -0.7111 -1.0202
-1.7562 -0.4976 0.4509
-0.9379 -0.4460 -0.0296
-1.1739 -0.4898 -0.4751
-1.1723 -0.5335 -0.4851
-1.0531 -1.0981 0.4666
-0.7097 -1.0870 0.3015
-2.9248 -0.3097 0.3279
-2.2323 -0.3427 0.4577
-1.2459 -0.4742 0.0384
-1.2065 -0.4731 0.0143
-0.9994 -0.4481 0.1906
-2.6435 -0.6943 0.5539
-1.2424 -0.4573 0.1646
-1.2258 -0.4543 0.0982
-1.2109 -0.4776 0.1792
-1.1139 -0.4695 0.2142
-1.1186 -0.5241 0.1523
-0.8471 -1.2477 0.6209
-1.7723 -0.4345 0.5006
-1.1571 -0.5231 0.1756
-1.0201 -0.4836 0.2184
-1.0608 -0.4753 0.2044
-0.7627 -0.3071 0.0051
-0.4140 -0.1598 0.0818
-0.9545 -0.4457 -0.1207
-1.8878 -0.0936 0.4562
-1.8193 -0.4812 0.6151
-1.1368 -0.5454 0.0860

