0.1960 -0.8857 1.2621
-0.3639 -0.8648 1.1511
-0.3313 -1.0832 0.8419
-0.1498 -0.7280 0.8117
-0.2646 -1.0605 0.7906
0.1369 -1.0887 0.9039
-0.1504 -1.1366 0.9420
-0.1878 -1.1391 0.8736
-0.2410 -1.1034 0.8816
-0.3426 -0.8787 0.9596
0.0307 -0.1593 0.1146
-0.0024 -0.0729 0.0959
-0.0502 -0.0960 0.1544
0.0449 -0.0376 0.0180
0.0419 -0.2569 0.1863
0.0434 -0.1129 0.1283
0.0460 -0.0829 0.0369
0.0035 -0.1563 0.2383
0.0536 -0.0286 0.0344
0.0204 -0.0222 0.0586
0.0525 0.0040 0.0549
0.0290 -0.0737 0.0612
-0.6100 -0.8064 0.7597
0.0109 -0.8725 1.3392
0.0192 -0.0411 0.0844
-0.0668 -0.8735 1.3223
0.0081 -0.0212 0.0170
0.0434 -0.0847 0.0198
-0.4004 -0.8938 0.9663
-0.3550 -1.0737 0.9326
0.0524 -0.2719 0.3332
0.0267 -0.0954 0.0341
0.0517 -0.0391 0.0942
0.0068 -0.0388 0.0832
0.0251 -0.0453 0.0411
0.2362 -0.9079 1.2375
-0.0207 -0.0938 0.0584
0.0084 -0.0888 0.1407
-0.1675 -0.4313 0.1024
0.0931 -0.2794 0.4474
0.0310 -0.0904 0.1725
0.1140 -0.6542 0.2654
0.0523 -0.0715 0.1431
0.0927 -0.0860 0.1115
0.0428 -0.0764 0.1343
-0.0092 -0.3316 0.1311
-0.0462 -0.3261 0.2373
0.0208 -0.0396 0.0910
0.0313 -0.0249 0.0738
0.0576 -0.4300 0.7004
0.0502 -0.0092 0.0423
0.0488 -0.0099 0.0363
0.0787 -0.1751 0.1794
0.0485 -0.0016 0.0449
0.0422 -0.0926 0.0544
0.0724 -0.0304 0.0399
0.0468 -0.0129 0.0437
-0.0053 -0.0774 0.2261
0.0502 -0.0070 0.0544
-0.1270 -0.7907 0.6667
0.0026 -0.7509 0.6666
-0.1824 -0.7000 0.5777
-0.2777 -0.7559 0.5600
-0.5092 -0.6924 0.9200
-0.0443 -0.7571 1.1314
-0.4707 -0.7276 0.6016
-0.5008 -0.7288 0.9345
-0.2088 -0.7428 0.6785
-0.3204 -0.7421 0.5771
-0.2014 -0.7902 0.9065
-0.1394 -0.7117 0.5636
-0.4708 -0.7580 1.0605
-0.1016 -0.7654 0.6868
-0.2224 -0.7669 0.9908
-0.3594 -0.7723 1.0696
0.0926 -0.7576 0.6875
-0.1924 -0.7811 1.1824
-0.4791 -0.6742 0.6940
-0.5162 -0.7544 1.0704
0.1372 -0.7708 0.6734
-0.3347 -0.7246 0.5214
-0.3865 -0.7246 0.7735
-0.0393 -0.7903 0.7260
-0.2384 -0.7547 0.8911
-0.2225 -0.7673 0.8389
-0.2661 -0.7770 0.8819
-0.4930 -0.6718 0.7424
-0.2776 -0.7480 0.7944
0.3161 -1.3640 0.4005
0.0830 -0.7701 1.0686
-0.0604 -0.7281 0.8675
-0.1460 -0.7743 1.1369
-0.0607 -0.7572 0.6557
-0.1536 -0.7383 1.1450
-0.3310 -0.7326 0.9492
-0.4095 -0.6958 0.9136
-0.4358 -0.7705 0.9392
-0.4169 -0.6982 0.8208
-0.2519 -0.7380 0.5899
-0.4050 -0.6812 0.4255
0.0298 -0.6764 0.6944
-0.0800 -0.7861 1.1708
-0.0497 -0.7886 0.9829
-0.0900 -0.7517 0.8507
-0.2815 -0.7688 1.0946
-0.2681 -0.7936 1.0543
-0.2477 -0.7574 0.7825
-0.3762 -0.7467 1.0970
-0.1946 -0.7493 0.5067
-0.4895 -0.7501 1.0065
-0.4581 -0.7409 0.9279
-0.4634 -0.7159 0.8604
-0.4833 -0.6760 0.6192
0.0612 -0.7404 0.7776
-0.3867 -0.7436 0.5618
-0.4036 -0.7215 0.5019
-0.4548 -0.7281 0.5316
-0.0791 -0.7137 0.5824
-0.1512 -0.7790 0.7991
-0.1708 -0.7589 0.7488
-0.1949 -0.7282 0.7393
-0.3638 -0.7933 0.8238
-0.3570 -0.7210 0.6050
0.0456 -0.7179 0.6798
0.0552 -0.6703 0.5768
-0.1075 -0.7460 0.5550
-0.3641 -0.7213 0.7028
-0.1294 -0.8029 1.2301
-0.0992 -0.7545 1.0832
-0.1341 -0.7694 0.8981
-0.1793 -0.7994 0.9564
-0.3495 -0.7008 0.9340
-0.3110 -0.7097 0.7780
-0.3675 -0.7378 0.8312
-0.3833 -0.6774 0.6824
-0.1252 -0.7598 0.8565
-0.0244 -0.7111 0.8222
-0.0369 -0.8175 0.8397
-0.1061 -0.7897 1.0162
-0.0513 -0.7472 0.7405
-0.1047 -0.7637 0.9315
-0.0763 -0.7570 0.7209
-0.0517 -0.7576 0.5493
-0.0968 -0.7442 0.6544
-0.2874 -0.7355 0.9309
-0.2243 -0.7528 0.4891
-0.2577 -0.7208 0.5733
-0.5370 -0.7493 0.9231
-0.4950 -0.7607 0.7496
-0.3938 -0.7659 0.4812
-0.4185 -0.7236 0.4185
-0.2027 -0.7516 0.5398
0.0312 -0.7753 0.5862
0.0451 -0.7473 0.6393
-0.1098 -0.7234 0.7804
-0.3204 -0.7836 0.7841
-0.5233 -0.7048 0.9619
-0.3726 -0.7090 0.6475
-0.2521 -0.7450 1.1126
-0.4028 -0.7544 1.0740
-0.1007 -0.7392 0.7413
-0.1432 -0.7589 0.7077
-0.3189 -0.8017 1.0801
-0.2805 -0.7229 0.4499
-0.3677 -0.7619 0.4554
-0.5903 -0.7691 0.8236
-0.0968 -0.7574 0.5386
-0.1834 -0.7472 0.5805
-0.0508 -0.7447 0.6125
-0.1965 -0.7019 0.5360
-0.4672 -0.7053 1.0577
-0.2892 -0.7292 0.6091
-0.3846 -0.7719 0.7499
0.0675 -0.7452 1.1039
-1.4340 -1.0043 2.5696
-1.4470 -1.0688 2.5362
-0.3532 -0.7388 0.9233
-0.3816 -0.6895 0.9444
-0.3736 -0.7030 0.9006
-0.4016 -0.7245 0.5047
-0.4854 -0.7661 0.5013
-0.0322 -0.7619 0.5595
-0.3394 -0.7515 0.6545
-0.4434 -0.7217 0.6421
-1.7840 -1.2880 2.8505
-1.8362 -0.9491 2.2966
-0.0104 -1.4429 0.4240
-0.8037 -1.5004 0.0706
-0.2457 -0.7317 0.5856
-0.4540 -0.7882 0.6240
-0.4174 -0.6700 0.4915
-0.1965 -0.7419 1.1666
-0.4609 -0.6841 0.8816
-0.4654 -1.3440 0.0463
-0.0021 -0.7701 1.1203
-1.7641 -1.0332 2.3278
-1.6646 -0.8921 2.1858
-0.4033 -0.7400 0.4792
-0.9691 -1.5519 3.2497
0.0664 -0.7660 0.5703
-0.2407 -0.7287 0.4948
-0.4417 -0.6876 0.9269
-0.2164 -0.6721 0.7003
-0.2527 -0.6973 0.7432
-0.3883 -0.6829 0.8194
-0.2420 -0.7326 0.9737
-0.1509 -0.2357 0.3438
-0.2131 -0.6910 0.8197
-0.1977 -0.6959 0.7644
-0.0180 -1.1616 0.2652
-0.3595 -0.6866 0.7367
-0.6024 -0.3708 0.8138
-0.1094 -0.6851 0.5805
-0.4934 -0.6931 0.8573
-0.5374 -0.7187 0.8474
-0.1828 -0.6991 1.0138
-0.2006 -0.7161 0.8816
-0.1724 -0.6889 0.7951
-0.3404 -0.7375 1.0207
-0.1086 -1.6108 0.5948
-0.3186 -0.6900 0.7175
-0.4335 -0.7157 0.8655
-0.4242 -0.6862 0.7183
-0.4035 -0.6838 0.6528
-0.1854 -1.3760 0.2498
-0.7249 -1.4906 0.4251
-0.0735 -0.7013 0.5714
-0.2665 -0.7113 0.8956
-0.1955 -0.7074 0.6499
-0.1796 -0.7123 0.5883
-0.2895 -0.6775 0.6351
-0.3711 -0.7128 0.6514
-0.3159 -0.6842 0.4936
-0.3506 -0.6697 0.5073
-0.5054 -0.7118 0.7625
-0.0476 -0.8187 1.1366
-0.0208 -0.7250 0.8691
-0.0336 -0.7010 0.8779
-0.0128 -0.6845 0.7921
-0.0927 -0.6785 1.0455
-0.0509 -0.7026 0.8367
-0.1644 -0.7238 1.0957
-0.1564 -0.7213 1.0503
-0.1148 -0.6994 0.8209
-0.1099 -0.7037 0.7942
-0.1996 -0.6706 0.9344
-0.1953 -0.7088 0.9211
-0.1612 -0.7319 0.6445
-0.2890 -0.6879 0.9641
-0.2496 -0.7334 0.8340
-0.3608 -0.7084 0.9751
-0.3855 -0.7105 0.9397
-0.2935 -0.7283 0.7304
-0.4600 -0.7023 0.9750
-0.5218 -0.7132 0.8198
-0.4667 -0.6850 0.6370
-0.4691 -1.4503 0.2335
0.0099 -0.6962 0.6187
-0.0494 -0.6868 0.5979
-0.1278 -0.6863 0.6412
-0.2356 -0.7053 0.5664
-0.3545 -0.7367 0.5997
-0.3881 -0.6669 0.5305
-1.5346 -0.8813 2.1327
-1.2936 -0.9381 2.3806
-0.3499 -1.3725 0.4336
0.1191 -0.7510 1.0794
0.1181 -0.6705 0.7802
0.1165 -0.7634 0.9509
0.0769 -0.6769 1.0027
0.1056 -0.7557 0.7895
0.0827 -0.6911 0.8303
0.0355 -0.6807 1.0347
0.0588 -0.6677 0.7659
0.0133 -0.7030 1.0271
0.0292 -0.6445 0.8860
-0.0959 -0.7287 0.7320
-0.1388 -0.7038 0.7861
-0.1811 -0.7600 0.7224
-0.1829 -0.6961 0.7059
-0.3515 -0.7041 0.6905
0.1078 -0.6269 0.6080
0.0729 -0.6601 0.6639
0.0009 -0.6904 0.7325
-0.0032 -0.1285 0.0413
-0.3859 -0.6927 0.4854
-0.4618 -0.7155 0.5934
-0.3986 -0.6760 0.4238
-0.4798 -0.7391 0.4811
-0.3534 -0.9432 2.4645
-0.4660 -1.5476 0.4725
0.2140 -0.6730 0.7681
0.0344 -0.6776 0.7395
0.0312 -0.7033 0.6635
-0.0362 -0.6919 0.7611
0.1947 -0.6873 0.6167
0.0657 -0.7046 0.7524
-0.0115 -0.6849 0.5738
-0.2203 -0.8399 0.5662
-0.3288 -0.7560 0.9786
0.2391 -0.7102 0.9106
0.1797 -0.6658 0.9775
0.1341 -0.6332 0.9527
0.1482 -0.7242 0.8813
0.0880 -0.6584 0.9177
0.0528 -0.6896 0.9830
-0.1906 -0.1624 0.4156
0.0641 -0.3522 0.3092
-0.0319 -0.2798 0.0901
-0.4215 -0.6852 0.9650
-0.6582 -1.3694 0.3491
-0.7273 -1.4089 0.4697
0.0421 -0.0118 0.0629
-0.4274 -0.6737 0.9969
-0.2225 -0.6853 1.0272

