0.3197 -0.6390 0.0747
0.1669 -0.6292 0.2851
0.1189 -0.6282 0.4441
0.0382 -0.6512 0.4775
0.0351 -0.6355 0.5421
-0.0408 -0.6273 0.2399
0.0156 -0.6468 0.5653
-0.0563 -0.6187 0.2145
0.0897 -0.6545 0.4594
0.2255 -0.6252 0.3385
0.1201 -0.6253 0.5026
0.1667 -0.6228 0.5085
0.0804 -0.6705 0.5151
0.4157 -0.6376 0.0666
0.2627 -0.6117 0.0162
0.3984 -0.6502 0.3319
0.2597 -0.6450 0.2546
0.3038 -0.6345 0.4602
0.2563 -0.5937 0.5005
0.2738 -0.6172 0.1624
0.1845 -0.6270 0.3855
0.1044 -0.6198 0.2037
0.1678 -0.6237 0.3912
0.1846 -0.6619 0.6954
0.1107 -0.6181 0.2936
0.2016 -0.6308 0.6420
0.1056 -0.6344 0.4194
0.2058 -0.6243 0.3405
0.0418 -0.6208 0.2143
0.1380 -0.6385 0.5439
0.0398 -0.6312 0.2285
0.0986 -0.6180 0.4321
0.0991 -0.6267 0.5145
0.0694 -0.6426 0.5552
0.0377 -0.6275 0.4349
0.0565 -0.6319 0.5246
0.0450 -0.6512 0.5756
0.0119 -0.6638 0.4912
-0.0646 -0.6247 0.2001
0.1362 -0.6398 0.3744
-0.0828 -0.6292 0.1547
0.0349 -0.6329 0.5787
0.5698 -0.6645 0.6053
0.1943 -0.6424 0.6026
0.1134 -0.6236 0.1894
0.3266 -0.6370 0.1558
0.3325 -0.6340 0.2314
0.2790 -0.6358 0.1555
0.2680 -0.6188 0.2564
0.2247 -0.6293 0.2105
0.0316 -0.6213 0.3008
0.2536 -0.6322 0.4358
0.2872 -0.6547 0.5839
0.0999 -0.6437 0.6461
0.1901 -0.6399 0.1820
0.2671 -0.6581 0.5994
0.0599 -0.6171 0.5500
0.1922 -0.6238 0.6208
0.0241 -0.6256 0.5360
0.4897 -0.6472 0.3694
0.2084 -0.6723 0.1333
0.2218 -0.6327 0.4560
0.2852 -0.6214 0.6659
0.1109 -0.6446 0.3233
0.1519 -0.6405 0.3407
0.1323 -0.6267 0.3283
0.3595 -0.6415 0.0017
0.3868 -0.6526 0.0579
0.5629 -0.6745 0.3574
0.2283 -0.6176 0.1957
0.2532 -0.6471 0.2468
0.1950 -0.6056 0.1646
0.3362 -0.6213 0.4547
0.2105 -0.6325 0.2451
0.1496 -0.6179 0.1209
0.1514 -0.6430 0.1385
0.3053 -0.6383 0.5288
0.1507 -0.6051 0.2575
0.2635 -0.6471 0.5468
0.1354 -0.6721 0.2416
0.2495 -0.6551 0.5494
0.1125 -0.6307 0.2399
0.2432 -0.6133 0.5777
0.2420 -0.6481 0.5765
0.1339 -0.6473 0.3520
0.1245 -0.6252 0.4515
0.0423 -0.6560 0.2897
0.0376 -0.6260 0.2861
0.0552 -0.6285 0.4286
0.0268 -0.6366 0.3619
0.0438 -0.6435 0.4289
0.0937 -0.6378 0.6058
-0.0413 -0.6465 0.2122
0.0882 -0.6436 0.6442
-0.0118 -0.6184 0.3339
0.2723 -0.6435 0.2063
0.1825 -0.6481 0.2168
-0.0104 -0.6348 0.1255
0.0407 -0.6326 0.3908
-0.0692 -0.6261 0.3152
0.0599 -0.6341 0.3415
0.0155 -0.6166 0.5724
0.0251 -0.6298 0.4998
0.4606 -0.6265 0.2550
0.0956 -0.6224 0.4932
0.0950 -0.6227 0.4506
0.0674 -0.6266 0.3762
0.0759 -0.6210 0.3214
0.1365 -0.6338 0.4482
0.1175 -0.6159 0.4000
0.2006 -0.6281 0.5825
0.1659 -0.6287 0.4858
0.1282 -0.6322 0.3846
0.1783 -0.6644 0.3680
0.1807 -0.6205 0.3307
0.1892 -0.6261 0.3214
0.1926 -0.6341 0.0542
0.2844 -0.6370 0.2077
0.2974 -0.6685 0.4661
0.1900 -0.6172 0.2630
0.2134 -0.6331 0.2793
0.2016 -0.6279 0.2533
0.2331 -0.6491 0.2557
0.1967 -0.6313 0.1635
0.1764 -0.6436 0.1040
0.2904 -0.6311 0.2928
-0.0916 -0.6327 0.2251
0.1628 -0.6323 0.1732
0.0222 -0.6197 0.5635
-0.0051 -0.6099 0.4685
-0.0817 -0.6239 0.2243
0.4395 -0.6292 0.1873
0.1227 -0.6421 0.1490
0.5122 -0.6058 0.3093
0.3183 -0.6358 0.0327
-0.0383 -0.6208 0.2482
0.4241 -0.6127 0.1997
0.2617 -0.6156 0.4497
0.1699 -0.6244 0.2726
0.1094 -0.6420 0.1491
0.0302 -0.6253 0.4168
0.2812 -0.6259 0.1904
0.3926 -0.6200 0.3756
0.3986 -0.6446 0.3564
0.4216 -0.6306 0.3883
0.2790 -0.6548 0.1420
0.0622 -0.6534 0.3939
0.0181 -0.6180 0.2625
0.4251 -0.6139 0.3897
0.2089 -0.6375 0.4557
0.4062 -0.6133 0.2658
0.3059 -0.6122 0.1707
0.0330 -0.6336 0.2410
0.0315 -0.6378 0.1256
0.4590 -0.6298 0.3856
0.1181 -0.6321 0.3417
0.3583 -0.6388 0.4539
0.2340 -0.6331 0.2347
0.4163 -0.6252 0.2933
0.4554 -0.6523 0.3013
0.4250 -0.6304 0.2636
0.4227 -0.6347 0.2446
0.0292 -0.6281 0.5852
0.4666 -0.6657 0.4495
0.1305 -0.6391 0.2489
0.2332 -0.6644 0.1349
0.2062 -0.6465 0.3187
0.0890 -0.6309 0.1131
0.3052 -0.6296 0.2965
0.2953 -0.6287 0.0320
0.3116 -0.6233 0.0885
0.4665 -0.6333 0.3251
0.3897 -0.6148 0.2294
0.3898 -0.6473 0.4112
0.2204 -0.6646 0.2287
0.0918 -0.6326 0.2360
0.2047 -0.6054 0.5152
0.1064 -0.6325 0.2921
0.0121 -0.6428 0.1108
0.1809 -0.6506 0.6395
-0.0314 -0.5541 0.3560
-0.0577 -0.6053 0.4820
-0.0070 -0.6154 0.5749
-0.1402 -0.6212 0.1642
-0.1326 -0.6557 0.1594
-0.0623 -0.6576 0.1385
0.1026 -0.6685 0.4608
0.1995 -0.6356 0.5404
0.3006 -0.6755 0.7298
0.0134 -0.6338 -0.0905
0.5643 -0.6137 0.5594
0.0144 -0.6790 0.7117
-0.1401 -0.6600 0.2614
0.0271 -0.6512 0.6699
-0.0647 -0.6376 0.3755
-0.0614 -0.6219 0.3300
-0.0033 -0.6212 0.4630
0.0339 -0.6241 0.4747
0.1949 -0.6355 0.3532
0.3298 -0.6492 0.4644
-0.0216 -0.6308 0.3795
0.3636 -0.6180 0.4996
0.3536 -0.6280 0.4951
0.1795 -0.6583 0.2119
0.2521 -0.6305 0.3612
0.3109 -0.6423 0.1147
-0.1241 -0.6315 0.2717
0.0016 -0.6023 0.5831
0.2213 -0.6385 0.3494
-0.1522 -0.6323 0.1821
-0.0281 -0.6333 0.3983
0.1792 -0.6489 0.3203
0.1046 -0.6409 0.5454
0.2071 -0.6130 0.4243
0.2424 -0.6164 0.4942
-0.0941 -0.6313 0.3339
-0.1179 -0.6387 0.2593
-0.1044 -0.6213 0.2803
0.5138 -0.6367 0.5127
0.0016 -0.6256 0.5436
-0.1306 -0.6347 0.1746
-0.0420 -0.6044 0.4105
-0.0209 -0.6349 0.1771
0.1646 -0.6144 0.4908
0.1653 -0.6050 0.5584
0.6331 -0.6313 0.4888
-0.0332 -0.6583 0.6185
0.1922 -0.6190 0.4040
-0.0781 -0.6334 0.3155
0.5102 -0.6431 0.3887
0.3792 -0.6266 0.2826
0.4156 -0.7432 0.3156
0.2950 -0.6141 0.1978
0.2889 -0.6664 0.1784
0.0750 -0.6735 -0.1233
0.0045 -0.6081 -0.0890
0.2668 -0.6292 0.3852
0.2528 -0.6248 0.4236
0.2203 -0.6268 0.4085
-0.1055 -0.5969 0.2030
-0.0058 -0.6384 0.5193
0.0317 -0.6185 0.5260
0.2787 -0.6325 0.4196
-0.0631 -0.6363 0.3227
0.2434 -0.5980 0.6600
0.2407 -0.6234 0.0333
0.4297 -0.6308 0.2280
-0.1663 -0.6611 0.2989
-0.1634 -0.6397 0.2349
-0.0183 -0.6556 0.6571
-0.0039 -0.6072 0.6295
0.2938 -0.6326 0.0815
0.0435 -0.6162 0.4810
-0.0442 -0.6353 0.2336
0.0930 -0.6033 0.4504
0.1517 -0.6763 0.5296
0.1269 -0.6054 0.3426
0.2607 -0.6379 0.5629
0.2375 -0.6242 0.1724
0.1807 -0.6366 0.3279
0.1248 -0.6097 0.1933
0.2578 -0.6580 0.4471
0.2776 -0.6323 0.4816
0.4607 -0.6380 0.1723
0.3542 -0.6208 0.0649
-0.1669 -0.6223 0.2531
-0.1491 -0.6232 0.3036
0.0087 -0.5977 0.7140
-0.0150 -0.5893 0.5626
-0.1392 -0.6247 0.2251
-0.0322 -0.6234 0.2862
0.0501 -0.6199 0.4600
0.2366 -0.6451 0.0968
0.3163 -0.6432 0.5489
0.1903 -0.6136 0.4557
0.0052 -0.6474 0.6079
0.5635 -0.6096 0.3251
0.3847 -0.6314 0.1436
-0.0830 -0.6395 0.5196
0.3027 -0.6405 0.1709
-0.1069 -0.6795 0.2698
-0.0096 -0.6554 0.6877
-0.1636 -0.6523 0.2258
0.3544 -0.6469 0.1463
0.3864 -0.6459 0.3766
-0.1584 -0.6335 0.2601
0.4046 -0.6428 0.2321
0.3562 -0.6318 0.2190
0.1115 -0.6892 0.0842
0.1485 -0.6250 0.3260
0.0530 -0.6329 0.2217
-0.0649 -0.6350 0.4110
0.0288 -0.3041 0.3713
-0.1164 -0.5905 0.2857
-0.1664 -0.6309 0.1806
0.0241 -0.5887 0.7209
0.1867 -0.5648 0.5535
0.4704 -0.6540 0.1371
0.3928 -0.6404 0.0520
0.3602 -0.6563 -0.0050
0.1351 -0.6481 0.1127
0.3380 -0.6240 -0.0043
0.3652 -0.6412 0.0315
0.1110 -0.6610 0.6483
-0.0820 -0.6601 0.3071
0.0913 -0.6392 0.3805
0.0800 -0.6452 0.3475
0.0944 -0.6141 0.3422
0.1227 -0.6137 0.3680
0.2556 -0.6429 0.0221
0.2929 -0.6433 0.5636
-0.1239 -0.6665 0.2670
0.0816 -0.6206 0.0939
0.2853 -0.6376 0.2063
0.2294 -0.6353 0.1473
0.3552 -0.6416 0.5434
0.3782 -0.6578 0.5656
0.2747 -0.6361 0.2580
0.3028 -0.6429 0.3446
0.2241 -0.6382 0.1841
0.1332 -0.6201 0.0988
0.2179 -0.6020 0.2018
0.1660 -0.6462 0.1003
0.2080 -0.6070 0.2187
0.3442 -0.6122 0.0428
0.3608 -0.6385 0.3182
0.0195 -0.6475 0.5820
0.2735 -0.6046 0.1583
-0.1241 -0.6508 0.1784
0.4357 -0.6575 0.2065
0.3938 -0.6527 0.2505
0.4220 -0.6084 0.3023
0.1007 -0.6238 0.3912
0.4191 -0.6254 0.2500
0.1947 -0.6403 0.3700
0.4524 -0.6566 0.3571
0.3538 -0.6320 0.4935
0.2916 -0.6096 0.4396
0.4763 -0.6586 0.1836
0.2401 -0.6654 0.7414
-0.0756 -0.6313 0.1349
0.1396 -0.5589 0.0610
-0.1214 -0.6401 0.1558
0.6447 -0.6323 0.5463
0.1297 -0.6243 0.5123
0.0429 -0.6111 0.2297
0.1083 -0.6468 0.3786
0.1769 -0.6387 0.1487
0.1358 -0.6499 0.5326
0.1609 -0.6127 0.0530
0.5323 -0.6381 0.3170
0.1938 -0.6374 0.0506
0.5268 -0.6554 0.6086
0.5146 -0.6009 0.3818
0.3806 -0.6180 0.2678
0.0903 -0.6979 0.3322
0.1165 -0.6340 0.3982
0.3073 -0.6374 0.2417
-0.0808 -0.6488 0.4989
0.4436 -0.6706 0.0966
0.3594 -0.6359 0.4448
0.6711 -0.6732 0.4746
-0.0890 -0.6600 0.2313
0.5561 -0.6828 0.5311
0.0421 -0.6720 0.4409
0.5870 -0.6945 0.3924
0.2998 -0.6030 0.0522
0.1402 -0.6295 0.2714
0.3765 -0.6362 0.1091
0.2538 -0.6529 0.6052
0.4998 -0.6539 0.3711
-0.0071 -0.6652 0.7423
0.3812 -0.6449 0.3169
0.2089 -0.6506 0.5849
0.1890 -0.6537 0.1802
0.3546 -0.6725 0.2091
0.1035 -0.6497 0.3718
-0.0650 -0.6721 0.4013
0.1889 -0.2519 0.0126
0.3784 -0.6297 -0.0317
0.3671 -0.6372 -0.0171
-0.1174 -0.6598 0.1535
0.3330 -0.6262 -0.0137
0.3872 -0.6200 -0.0229
0.5402 -0.6487 0.2259
0.3759 -0.6459 -0.0170
0.1861 -0.5991 0.3309
0.2707 -0.6243 0.5434
0.2165 -0.6169 0.2332
-0.1122 -0.6580 0.2907
-0.0311 -0.6278 0.5652
0.3762 -0.6383 0.2801
0.3816 -0.6200 0.0323
0.5586 -0.6524 0.2408
0.3890 -0.5913 0.0542
0.0088 -0.6602 0.6788
0.2191 -0.1193 0.1037
0.2704 -0.6080 0.1495
0.0913 -0.6430 0.6795
-0.0076 -0.6446 0.4700
0.3030 -0.6561 0.1676
0.1625 -0.2483 -0.0189
0.3404 -0.6040 0.2604
0.1469 -0.6461 0.0747
0.2104 -0.6415 0.5315
0.0247 -0.6382 0.7649
0.1012 -0.0228 0.0523
0.0952 -0.0664 0.1575
0.1968 -0.6317 0.5664
0.5578 -0.6416 0.2147
0.3095 -0.6268 0.0266
0.0100 -0.6119 0.1102
0.3554 -0.6566 -0.0214
0.1897 -0.6472 0.0473
0.0567 -0.6458 0.0946
-0.1125 -0.6535 0.1506
-0.0650 -0.6443 0.1297
0.2561 -0.6200 0.0077
0.2340 -0.6211 0.0244
0.3113 -0.6404 0.0404
0.2807 -0.6130 0.0711
-0.0985 -0.6429 0.3325
-0.0866 -0.6423 0.1524
0.2032 -0.6129 0.1889
-0.0527 -0.6186 0.1804
0.1401 -0.6460 0.1142
-0.0210 -0.6136 0.1651
0.0928 -0.6427 0.4558
0.1327 -0.6352 0.5307
0.1713 -0.0816 0.0916
0.0743 -0.0503 0.0549
0.6163 -0.6490 0.4485
0.3672 -0.6538 -0.0216
0.3962 -0.6095 -0.0178
-0.0039 -0.6314 0.7864
0.3483 -0.6191 0.0552
0.3346 -0.6279 0.4456
0.3497 -0.6325 0.5273
0.1074 -0.6536 0.6354
0.1844 -0.6306 0.5782
0.3104 -0.7095 -0.1221
0.1700 -0.6410 0.6184
0.1339 -0.1949 0.1998
-0.0468 -0.9916 1.0246
0.0449 -0.6556 0.6556
0.2194 -0.1772 0.0609
0.4076 -0.6260 0.3869
0.1393 -0.6298 0.0622
0.0864 -0.6348 0.4407
0.2400 -0.6475 0.1717
0.2284 -0.6341 0.1925
-0.0769 -0.6464 0.3601
0.0997 -0.0774 0.0546
0.7762 -0.6784 0.5387
0.5491 -0.6334 0.5831
-0.0598 -0.6173 0.3224
0.0126 -0.6494 0.5591
0.0407 -0.6374 0.4863
0.1663 -0.6451 0.4999
0.2790 -0.5991 0.1120
0.2819 -0.6116 0.0214
0.0056 -0.6433 0.6217
0.6264 -0.6410 0.5656
0.5980 -0.6444 0.4764
0.2420 -0.6137 0.0860
0.2715 -0.6653 0.1311
0.1843 -0.6090 0.2657
0.0098 -0.6590 0.3824
0.1099 -0.6258 0.1821
0.0879 -0.6020 0.1866
0.1456 -0.6110 0.3148
0.4422 -0.6417 0.1810
0.1508 -0.5527 0.4249
0.1458 -0.6092 0.0571
0.1299 -0.6294 0.1055
0.1075 -0.6295 0.3111
0.5188 -0.6352 0.4867
0.0220 -0.7197 0.5251
0.2618 -0.6279 0.1930
0.0990 -0.0920 0.0429
0.1775 -0.1528 0.2084
0.6099 -0.6385 0.4721
0.1575 -0.6066 0.0905
0.1150 -0.0482 0.0333
0.1283 0.0109 0.0512
0.1024 -0.1177 0.2030
0.3598 -0.6229 0.5262
0.1166 -0.0264 0.0331
0.1156 -0.0164 0.0836
0.1258 0.0233 0.0438
0.1516 -0.0533 0.0299
0.1264 0.0098 0.0607
0.1650 -0.0407 0.0524

