-0.0600 -1.1235 -0.0798
-0.2809 -1.0626 -0.1348
-0.5516 -0.9776 0.3188
0.0735 -1.1666 0.3058
-0.6351 -1.2576 0.0903
-0.0326 -1.1583 0.0433
-0.5875 -1.1893 -0.0660
0.1281 -0.9126 0.1835
-0.0511 -1.0341 0.4669
-0.0758 -1.1178 0.4145
-0.1045 -1.1429 0.6448
-0.0303 -1.1490 0.4926
-0.6790 -1.2282 0.0760
0.2266 -1.0142 0.3769
-0.2393 -1.1383 0.0728
-0.0801 -1.1211 -0.1097
0.1297 -1.0941 0.2865
-0.7388 -1.2825 0.3802
0.2023 -0.9807 0.1921
-0.4018 -1.1281 0.5540
-0.0177 -1.0885 0.1313
-0.5999 -1.1635 0.1706
0.1337 -0.9650 0.1867
-0.2199 -0.5464 -0.0134
0.0228 -0.9583 0.1210
-0.3560 -1.1336 0.2269
-0.0188 -0.1582 0.0438
-1.1971 -1.0726 0.5924
-0.2791 -1.1412 0.1311
-0.0514 -0.1949 0.0098
0.1087 -0.9785 0.2487
-1.2833 -1.3469 0.6944
-1.1210 -1.1673 0.2147
0.2545 -1.0868 0.4792
-0.7585 -0.9677 1.0458
-0.1629 -1.2002 -0.1134
-1.2112 -1.0658 0.5740
-0.1010 -1.2110 -0.1970
-0.9365 -1.2227 0.1361
-0.3667 -0.3378 0.2817
-0.1378 -1.0976 0.3112
-0.3171 -1.1357 0.1825
-0.4832 -1.2202 0.5797
-0.0203 -1.0509 0.1870
-1.2167 -1.0464 0.5824
-0.7202 -1.2127 0.3586
-1.1937 -1.0199 0.5066
-0.7769 -1.1304 0.1660
-0.2076 -0.3007 0.0116
-0.0742 -0.3475 -0.0541
0.3099 -1.0082 0.4289
0.2321 -1.0414 0.4738
0.2359 -1.0717 0.4510
-0.8024 -0.9455 0.9441
-0.5680 -1.2100 0.0001
-0.2897 -0.8236 0.5390
0.2747 -1.0762 0.4240
0.0426 -1.2346 0.3166
0.0103 -1.2045 0.4753
0.3145 -1.0112 0.4112
-0.5088 -1.0651 0.4939
-0.4236 -1.1452 0.8375
0.3185 -1.0803 0.4111
-0.1178 -1.1574 0.5001
-0.0307 -0.2631 0.0662
-0.0513 -1.0879 0.4362
-0.0581 -0.2036 0.0589
0.0609 -1.0300 0.3721
-0.0644 -0.3417 -0.0350
-0.2744 -1.1206 0.7629
-0.3564 -1.1755 0.1904
0.0522 -1.0343 0.1748
-0.2701 -1.0857 0.8297
-0.3313 -1.1343 0.5750
0.2828 -1.0178 0.4635
0.2647 -1.0285 0.4350
-0.1530 -1.0718 0.5486
-0.2328 -1.1350 0.2476
0.1937 -1.0374 0.6896
0.2491 -1.0017 0.6097
-0.1181 -1.1874 0.9802
-0.3550 -1.0063 1.0326
0.1402 -1.2237 0.7367
0.0289 -1.0828 0.7129
-0.0082 -1.0287 0.5985
0.0708 -1.2004 0.2370
0.0734 -0.9959 0.1922
-0.1239 -1.0779 0.3014
-0.3410 -0.9896 0.3668
-0.2176 -0.9805 0.2398
-0.1394 -1.0857 0.1507
-0.4736 -1.1720 1.1597
0.1074 -1.1560 0.6429
-0.0033 -1.0657 0.6154
-0.0801 -1.0015 0.4981
0.0599 -1.0907 0.2238
-0.0512 -1.0007 0.1144
-0.7623 -1.2180 0.1459
-0.1666 -1.2923 1.1258
-0.8241 -1.0395 1.0714
-0.5373 -0.4467 0.8554
0.0221 -1.0225 0.7705
-0.0992 -0.9080 0.4300
-0.4519 -1.2487 0.4257
0.0590 -0.6229 0.5680
0.0312 -0.8680 0.6907
-0.5656 -0.4502 0.7606
-0.7409 -0.5294 0.6537
-0.6462 -0.3429 0.3755
-1.2982 -0.5574 0.6077
-0.7809 -0.3626 0.3964
-0.6692 -0.3343 0.3189
-1.0274 -0.5611 0.4465
-0.2901 -1.1801 0.7718
-1.1087 -1.1451 0.1649
-0.0062 -0.0116 0.1717
-0.6179 -0.5053 0.9378
-0.5797 -0.5000 0.9332
-0.9609 -0.5154 0.3950
-0.2222 0.1130 0.5061
-0.0732 -0.1444 -0.0383
-0.0814 0.1605 0.2163
0.0140 -0.4301 -0.1138
-0.2845 -0.5801 0.0258
-0.0414 -0.0717 0.2793
-0.1367 0.2152 0.3277
-0.0162 0.2287 0.1899
-0.0144 0.2304 0.1758
-0.0113 0.2291 0.1866
0.0380 0.1927 0.1963
0.0165 0.2577 0.1821
-0.1222 0.1360 0.2184
0.0001 0.2176 0.2138
-0.0804 0.2413 0.2081
-0.0366 0.2168 0.1763
0.0383 0.2756 0.1663
-0.0292 0.2198 0.2283
-0.0062 0.2237 0.2213
0.0419 0.2752 0.1562
-0.0734 0.1699 0.2627
-1.2809 -0.5981 0.8149
-1.0848 -0.5889 0.4207
-1.0962 -0.6097 0.3896
-0.1343 -1.2308 1.1557
-1.0619 -0.5817 0.4431
-1.0511 -0.5456 0.3874
-1.1060 -0.6066 0.4987
-0.9624 -0.5634 0.5681
-0.5785 -0.3768 0.2980
-0.5244 -0.2149 0.5351
-0.7024 -0.5584 1.0252
-0.4809 -0.0757 0.2977
-1.1740 -1.2398 0.1941
-1.1788 -0.5724 1.8679
-0.9777 -0.6144 0.7161
-0.4856 -1.1113 1.1804
-1.2190 -1.2604 0.1512
-1.2514 -1.2143 0.2129
-1.5731 -0.5745 1.2770
-1.0113 -0.5847 0.5303
-1.2306 -0.5957 0.8842
-1.2580 -1.3174 0.1727
-0.8379 -0.5480 0.7356
-0.8159 -0.5887 0.8615
-1.0437 -0.5476 0.3547
-0.7011 -0.5857 0.9694
-0.9233 -0.5771 0.6575
-0.8358 -0.5761 0.7967
-0.7203 -0.5974 0.9782
-0.9068 -0.5280 1.1756
-1.0929 -0.5706 0.3729
-0.5789 -1.3319 1.2782
-0.6555 -0.5510 0.9913
-0.9115 -0.5875 0.6995
-1.0537 -0.5890 0.5228
-1.0092 -0.6076 0.9104
-0.7403 -0.5931 0.9901
-0.6750 -0.5646 0.9828
-0.6944 -0.5733 0.9740
-0.7007 -0.5513 0.9669
-0.9277 -0.5978 0.7994
-0.7288 -0.5581 0.9344
-1.0542 -0.6003 0.8200
-0.9264 -0.5732 0.6475
-0.9774 -0.5915 0.6040
-1.0177 -0.5801 0.5628
-1.0482 -0.5813 0.4650
-1.1377 -0.5734 0.4676
-0.5126 -0.1250 0.4100
-0.5417 -0.1150 0.3428
-1.2411 -0.3576 1.8865
-0.9935 -0.6318 1.7523
-0.9912 -0.5497 1.8300
-1.1111 -0.5945 0.7625
-0.9362 -0.5960 0.8347
-1.1448 -0.5302 0.4528
-0.7060 -0.5467 0.9957
-0.9559 -0.5797 0.6650
-1.2639 -0.5940 0.8272
-0.8999 -0.5888 0.7203
-0.7941 -0.5442 0.8071
-0.8817 -0.5883 0.8007
-1.0520 -0.6070 0.4578
-1.7266 -0.6808 2.4220
-1.7063 -0.6130 2.3767
-0.7583 -0.5624 0.9013
-0.7981 -0.5550 0.8665
-0.8321 -0.5990 0.7963
-0.9327 -0.5667 0.5705
-0.6865 -0.5657 1.0220
-1.9592 -0.9184 2.6166
-1.1828 -0.5909 0.4339
-1.2000 -0.5863 0.4928
-1.1465 -0.5645 0.5271
-0.7979 -0.5972 0.9035
-1.0594 -0.6008 0.4322
-0.7354 -0.5730 1.0528
-1.0724 -0.5992 0.4102
-1.1418 -0.5884 0.4444
-1.1802 -0.5492 0.4910
-0.9081 -0.5871 0.7560
-1.0365 -0.5862 0.5457
-0.8838 -0.5603 0.7362
-0.8609 -0.5604 0.7223
-0.7832 -0.5758 0.8346
-1.1491 -0.5781 0.5552
-0.8497 -0.5600 0.8446
-0.6816 -0.5588 1.0105
-1.1170 -0.5972 0.6505
-0.8633 -0.5581 0.6667
-0.9434 -0.5619 0.5953
-0.8947 -0.5619 0.7720
-1.0117 -0.5938 0.9668
-1.2267 -0.6993 0.8192
-0.8142 -0.5590 0.8494
-1.0892 -0.5471 0.9786
-1.2352 -0.5701 0.8090
-0.9204 -0.5576 0.6728
-1.1599 -0.5617 0.4471
-1.0118 -0.5457 0.4511
-1.0024 -0.5534 0.5297
-0.8239 -0.5630 0.7859
-0.9122 -0.5628 0.6965
-0.5206 -0.1297 0.4979
-0.6973 -0.5655 0.9983
-0.8079 -0.5705 0.7763
-0.6643 -0.1958 0.5024
-1.0220 -0.5781 0.7616
-1.0810 -0.5527 0.4028
-0.7777 -0.5496 0.7976
-1.1618 -0.5555 0.5347
-1.1237 -0.5537 0.6914
-1.0230 -0.5583 0.7624
-1.0522 -0.5526 1.0455
-1.1708 -0.6016 0.9964
-0.5061 -1.1242 1.1458
-1.0732 -0.5599 1.0326
-0.4830 -1.2016 1.2039
-1.2535 -0.5966 0.7368
-1.0238 -0.5537 0.3982
-1.0291 -0.5387 0.4085
-1.0262 -0.5469 0.4298
-0.9999 -0.5561 0.4418
-1.1616 -0.5671 0.5084
-0.9021 -0.5467 0.6328
-1.0340 -0.5518 0.3760
-0.7264 -0.4433 0.7491
-0.7204 -0.5634 0.9581
-0.7613 -0.5645 1.0383
-1.1279 -0.5717 1.7421
-0.7413 -0.5430 0.8847
-0.9371 -0.5458 0.5226
-0.1125 0.2655 0.3162
-0.0926 0.3396 0.2156
-1.2019 -0.5364 0.7678
-1.1769 -0.5368 0.8053
-0.9893 -0.5614 0.7729

