0.1207 -0.9596 0.8692
-0.1120 -0.9043 1.0423
0.1885 -0.9935 0.8992
-0.1650 -0.8361 0.7128
-0.2873 -0.6856 0.7950
-0.0038 -0.0540 0.0524
0.2582 -0.8643 0.8036
-0.3072 -0.6780 0.7874
-0.0732 -0.1317 0.1412
-0.3048 -0.6674 0.8266
-0.1289 -1.1129 0.7105
0.1831 -0.8606 1.0036
-0.1997 -0.8019 1.0204
0.2236 -0.8168 0.9792
-0.0148 -0.3064 0.2341
-0.1939 -0.8690 0.7427
0.0004 -0.6923 0.9269
0.0183 -0.0285 0.0279
-0.2919 -0.6427 0.6982
0.6072 -1.5998 0.4538
0.0337 -0.0587 0.0620
-0.0114 -0.0748 0.0859
0.0511 -0.9849 0.8004
0.0026 -0.0865 0.1043
0.0162 -0.0297 0.0384
0.0114 -0.0859 0.1035
-0.0286 -0.0987 0.1099
0.0706 -0.7176 0.9845
0.0280 -0.0533 0.0681
-0.1686 -0.8674 0.9358
-0.0355 -0.1355 0.1617
-0.0556 -0.1858 0.2553
-0.0473 -0.8469 1.0773
0.0836 -0.9790 0.8310
-0.1234 -0.9228 0.8666
-0.0313 -0.1073 0.0828
-0.0144 -0.1011 0.0968
0.0357 -1.0217 1.1956
-0.0023 -0.0976 0.0642
0.0284 -0.0768 0.0743
0.0060 -0.0964 0.0884
0.1668 -1.1196 0.8723
-0.0544 -0.1251 0.1408
-0.0101 -0.0265 0.0264
-0.0494 -0.1838 0.2381
-0.2502 -0.9911 0.9384
-0.0172 -0.1010 0.0627
-0.1231 -0.3285 0.3194
0.0423 -0.1769 0.1417
-0.0350 -0.1270 0.0837
-0.0115 -0.1358 0.1638
-0.1026 -0.2355 0.2824
-0.0328 -0.1316 0.1487
0.0420 -0.2006 0.1517
0.0677 -0.2026 0.2059
-0.0740 -0.1415 0.1199
-0.0307 -0.0170 0.0147
-0.0339 -0.0617 0.0470
-0.0585 -0.1361 0.1373
-0.0558 -0.1379 0.1182
-0.0762 -0.1361 0.1509
-0.0498 -0.0535 -0.0109
-0.0193 -0.0501 0.0567
0.0314 -0.0774 0.0958
0.0061 -0.0258 0.0369
0.0170 -0.0832 0.1092
0.0088 -0.0857 0.1159
0.0526 -0.3784 0.5182
-0.0661 -0.1347 0.1487
-0.0702 -0.0756 0.0494
-0.0926 -0.1232 0.1252
0.0355 -0.1664 0.1348
0.0845 -0.8421 0.7005
-0.0218 -0.0432 0.0349
-0.0816 -0.1124 0.1167
0.0098 -0.1004 0.0876
0.0713 -1.0630 0.9528
-0.0550 -0.1048 0.0796
-0.0412 -0.3645 0.3274
-0.0960 -0.1278 0.1472
-0.0412 -0.0042 0.0266
-0.1502 -0.6157 0.5231
-0.0514 -0.1149 0.1000
-0.0719 -0.1704 0.1798
-0.0811 -0.1234 0.1412
0.0037 -0.0953 0.0854
-0.1311 -0.2369 0.2850
-0.0832 -0.1169 0.1495
-0.1956 -0.5236 0.5849
0.0383 -0.2242 0.2592
-0.0914 -0.1277 0.1468
-0.0864 -0.1254 0.1438
-0.0884 -0.1186 0.1471
-0.1036 -0.1333 0.1374
-0.1023 -0.1303 0.1393
-0.0535 -0.0855 0.1193
-0.1441 -0.1704 0.0916
0.1243 -0.9543 1.0937
-0.0604 -0.1470 0.1442
-0.0360 -0.1039 0.1266
0.0119 -0.2923 0.4024
-0.0385 -0.1406 0.1750
-0.0617 -0.2369 0.2751
-0.0993 -0.0398 0.0326
-0.1430 -0.2253 0.3043
-0.1281 -0.1702 0.0388
-0.1482 -0.3219 0.3952
-0.1062 -0.1348 0.1679
-0.0725 -0.2501 0.2935
-0.0470 -0.3073 0.2882
-0.0673 -0.2500 0.2512
-0.0598 -0.2499 0.2419
-0.0217 -0.2199 0.2182
-0.0735 -0.0530 0.0601
-0.0550 -0.2473 0.3158
-0.0585 -0.1494 0.1478
-0.0981 -0.1458 0.1722
-0.1450 -0.4055 0.3917
-0.0477 -0.1013 0.1117
-0.0720 -0.2592 0.3044
-0.0037 -0.2641 0.3002
-0.1651 -0.9142 1.1845
-0.1682 -0.3153 0.4031
-0.0261 -0.0069 0.0286
-0.0266 -0.0018 0.0234
-0.0346 -0.0080 0.0141
-0.0241 -0.0087 0.0324
-0.0819 -0.1397 0.1194
0.0005 -0.1332 0.1382
-0.0774 -0.0548 0.0790
-0.1169 -0.1507 0.1662
-0.0214 -0.2170 0.2090
-0.0661 -0.1481 0.1413
-0.0363 0.0010 0.0187
-0.0723 -0.1439 0.0904
-0.0303 -0.0095 -0.0043
-0.0047 -0.3496 0.4642
0.1047 -0.4556 0.5949
-0.0422 -0.0038 0.0241
-0.0884 -0.0864 0.1158
-0.0696 -0.0679 0.0772
-0.0068 -1.3903 1.5208
-0.1002 -0.2049 0.2647
-0.0832 -0.2010 0.1540
-0.1739 -0.2007 0.2647
-0.1841 -0.2259 0.2487
-0.0332 -0.0207 0.0356
-0.1197 -0.2322 0.2399
-0.1006 -0.2924 0.2735
-0.0780 -0.2196 0.2211
-0.1686 -0.2324 0.2625
0.0904 -0.2635 0.2215
-0.0218 -0.0324 0.0622
-0.0044 -0.0466 0.0710
-0.0395 -0.5480 0.7325
-0.0990 -0.2810 0.3557
-0.0958 -0.2785 0.2939
-0.0802 -0.2736 0.3649
-0.1436 -0.0972 0.1342
-0.0272 -0.2954 0.3653
-0.1875 -0.2916 0.3335
-0.0364 -0.2398 0.2597
-0.1551 -0.2434 0.2016
0.0145 -0.4532 0.3187
0.0360 -1.4224 1.6335
-0.0204 -0.0507 0.0805
-0.0190 -0.0573 0.0778
0.0005 -0.0507 0.0815
-0.2025 -0.3073 0.3539
-0.0076 -0.2898 0.2737
0.0087 -0.3208 0.3146
-0.0322 -0.3115 0.3977
-0.1757 -0.1203 0.0974
-0.0414 -0.0661 0.0423
-0.1151 -0.3236 0.3947
-0.0213 -0.0607 0.0819
-0.1855 -0.2075 0.2102
-0.0434 -0.0532 0.0498
-0.0400 -0.0634 0.0737
-0.0806 -0.2197 0.2183
0.0089 -0.0801 0.0770
-0.0298 -0.0585 0.0862
0.0027 -0.0745 0.1197
-0.0267 -0.0259 0.0528
-0.0274 -0.0596 0.0815
0.0046 -0.1543 0.1789
-0.0381 -0.0351 0.0487
-0.0472 -0.0334 0.0452
-0.0377 -0.1496 0.1888
-0.0454 -0.0085 0.0228
-0.0159 -0.1714 0.2127
-0.0652 -0.0576 0.0907
-0.0450 0.0009 0.0148
-0.0575 -0.0068 0.0147
-0.0459 -0.0718 0.0809
-0.0358 -0.1170 0.1554
-0.0458 -0.0123 0.0172
-0.0571 0.0051 0.0125
-0.0329 -0.0292 0.0570
-0.0025 -0.1712 0.2530
-0.0485 0.0143 -0.0004
-0.0174 -0.1524 0.2217
-0.0464 -0.0556 0.0611
-0.0353 -0.0396 0.0617
-0.0380 -0.2181 0.2945
-0.0488 -0.1065 0.1550
-0.0470 -0.0648 0.0441
-0.0711 -0.3386 0.3004
-0.0372 -0.0602 0.0535
-0.0583 -0.0279 0.0394
-0.0538 -0.2769 0.1896
-0.0217 -0.0419 0.0682
-0.0476 -0.0564 0.0620
-0.0032 -0.2510 0.2792
-0.0650 -0.0681 0.0916
-0.0467 -0.0418 0.0615
-0.0503 -0.0359 0.0627
0.0056 -0.0710 0.0732
-0.2235 -0.6677 0.8262
-0.2742 -0.6833 0.8569
0.1381 -0.6585 0.6022
0.4168 -0.6673 0.7095
0.0948 -0.6537 0.6029
0.0086 -0.1983 0.2261

