0.3942 -0.3774 -0.4455
0.5910 -1.6834 -0.5745
0.0488 -3.3093 -1.0991
0.5480 -2.3896 -0.7515
-2.4534 -14.6732 -3.8508
1.2002 -3.3746 -1.4199
3.4208 -4.3353 -1.4730
3.6398 -4.8333 -1.5333
0.6015 -4.7958 0.5360
2.3953 -6.8088 0.6416
-2.1179 -9.6234 -4.7802
6.7267 -7.8190 -1.4896
2.1256 -8.8080 0.3487
3.3532 -10.6150 1.1546
0.6353 -11.8064 0.4276
6.8211 -7.6967 -1.6218
2.3956 -8.4672 -1.8288
0.7703 -11.9610 2.4009
1.8074 -8.8053 0.4787
0.9727 -11.8740 1.7851
3.3865 -11.9146 3.1249
-1.5497 -10.5784 -2.9981
-1.7537 -5.6280 0.0901
17.4462 -21.5049 -8.0550
14.8328 -17.0236 -1.0517
34.1138 -12.1702 7.8324
35.3853 -20.0057 12.2508
31.9705 -21.1275 22.1492
18.9714 -14.7282 11.4752
20.1711 -17.9840 12.9161
21.7318 -16.9057 14.7736
25.4906 -28.2984 15.5721
21.4041 -17.8619 16.7798
21.8938 -21.0475 17.3533
21.4085 -19.6922 19.9836
20.5301 -19.1380 20.4174
22.6941 -25.9976 21.1798
24.2766 -22.1742 24.2904
12.0732 -16.1057 -6.4660
11.6601 -7.6166 1.9556
17.7724 -20.7333 -3.5931
14.1400 -9.6079 1.6765
14.9124 -19.8060 -0.6447
15.5834 -14.1207 6.5284
13.7415 -9.6078 -3.7980
19.4353 -20.1947 9.7310
20.4679 -21.2046 11.4277
13.2011 -9.4196 -3.6291
19.8933 -26.9031 10.2640
15.4474 -20.6398 11.2731
20.2495 -23.5233 14.7750
21.5445 -26.9761 14.6638
16.8302 -22.2008 15.6638
14.1667 -9.3529 0.1907
16.3216 -16.3998 11.0785
16.1592 -17.5367 -4.5957
15.6709 -18.8143 8.3207
16.3490 -23.6805 14.9256
-0.3160 -4.9521 5.8721
2.2412 -5.1512 9.2976
4.8473 -6.4194 10.5198
8.7117 -20.1729 1.3914
4.6016 -9.3033 6.4317
17.7801 -19.5225 17.2343
0.4089 -0.7692 -1.0064
14.2290 -14.2587 -0.7160
16.7875 -9.9443 24.4208
7.9348 -11.4381 5.9938
17.0323 -20.9286 -8.2155
14.7642 -17.9771 -5.1585
21.3751 -17.1910 13.6537
18.8060 -17.3776 15.6218
20.0336 -20.6481 16.4124
20.8536 -22.0448 20.9566
17.8461 -25.0040 21.7504
15.1878 -22.6314 21.1758
25.2864 -15.5548 35.3965
14.1048 -6.7098 7.0862
16.2020 -13.2555 6.2873
6.2934 -11.9506 8.6487
17.5869 -17.6519 15.9568
12.4129 -21.8570 16.2653
17.6877 -23.2460 23.2477
24.8727 -13.7692 34.9712
15.1330 -9.6019 3.7180
16.4879 -19.7868 -1.2555
15.0548 -21.9717 12.3774
13.1991 -24.0521 26.1631
7.0543 -7.8863 6.4899
13.9676 -19.4201 1.9883
10.7496 -9.7644 8.0373
13.2926 -15.9970 13.6501
14.1498 -21.5756 15.3364
14.9790 -22.5512 18.3561
11.1510 -8.3303 -3.4402
15.2933 -13.1375 29.6240
14.2359 -17.6621 10.4775
16.2293 -20.0851 16.7650
13.8446 -20.6433 13.4389
13.6572 -7.3042 -4.6176
9.1961 -22.1535 8.5951
11.4641 -10.7173 7.4464
18.7030 -20.4418 0.7173
13.9687 -12.7816 8.4217
16.2068 -28.7532 23.8822
17.8174 -17.6375 -1.7108
15.6269 -15.6447 0.5306
10.7764 -15.3141 2.1745
15.4585 -16.8824 -0.2925
17.2077 -21.8709 -4.1306
17.5858 -19.5903 0.5611
16.5720 -19.4475 2.8184
14.5459 -14.1314 9.5530
13.5989 -25.5585 19.7593
11.4841 -14.6847 24.7748
8.3802 -28.8960 11.1211
44.2834 -10.4214 15.3704
17.1525 -23.0877 20.9824
15.6542 -26.1632 23.2524
0.5721 -11.1976 13.0192
15.2302 -25.2701 19.5161
22.5510 -24.9211 -0.4741
18.1214 -24.2709 6.3976
16.8960 -21.3521 21.4192
22.6766 -11.2608 12.6417
10.9919 -6.1736 -4.8049
10.8382 -5.0438 -5.2443
11.9746 -7.8997 -4.4046
11.5108 -8.1386 -3.9167
11.3356 -7.9519 -3.3470
11.1190 -7.9324 -3.6567
11.8983 -7.0925 -3.5316
11.6065 -7.2485 -3.4073
10.7857 -6.8870 -4.4546
12.0438 -6.9255 -2.8766
16.1687 -10.6489 -4.1186
14.2403 -9.5529 -3.5763
13.6722 -9.5832 -3.4590
14.4286 -9.2943 -0.5957
14.4172 -9.0704 -1.9413
12.6460 -7.7930 -2.6077
10.4564 -9.0005 -4.0705
13.2997 -7.4639 -4.8029
11.3878 -6.4800 -6.1723
12.5334 -7.1241 -4.4923
12.6806 -7.9546 -4.0016
13.2593 -8.1559 -2.9574
12.6777 -7.4564 -3.7386
12.0408 -7.4914 -4.3177
11.5788 -6.9727 -4.9313
12.7127 -7.9018 -2.4488
12.4206 -7.8666 -2.3407
12.4036 -7.8942 -2.0835
11.7172 -7.4742 -3.2523
11.5686 -6.8306 -3.4776
10.9824 -6.7613 -4.6868
11.0355 -6.8409 -4.1740
13.2762 -8.1677 -5.1632
12.6588 -8.1508 -4.9315
0.4071 -0.7665 -1.0672
15.2223 -9.6100 -0.5565
16.9374 -9.2343 -1.3584
12.9122 -8.4120 -4.8413
11.7287 -6.8620 -3.2769
15.1461 -7.7504 -3.1618
15.1903 -8.0006 -3.0966
13.5243 -8.6778 -3.0448
13.8121 -8.4773 -2.2729
13.0497 -7.5228 -2.3688
13.1440 -8.0988 -2.1500
12.9515 -7.9182 -2.1409
14.2748 -12.1786 -5.7314
13.1799 -5.1676 -3.0257
10.8091 -5.0746 -6.1176
12.5996 -8.1020 -3.6622
12.3100 -8.2721 -3.7639
12.1386 -5.4227 -2.6458
11.2698 -8.1552 -3.8856
12.8467 -9.0136 -3.6194
12.1278 -8.8743 -3.6293
12.1029 -8.8954 -3.3262
11.3468 -8.0833 -3.9572
15.3690 -11.5577 2.5444
14.9222 -9.0925 -3.4018
15.6580 -8.9934 -2.0456
14.2671 -9.0751 -3.5661
14.5630 -9.0834 -3.1753
-0.0043 -0.8049 -0.8742
14.8540 -8.8554 -2.3501
14.4687 -8.8000 -2.5163
13.9776 -8.8911 -2.8449
13.3065 -9.0099 -3.7916
0.0882 -0.8131 -1.1172
13.7804 -8.7162 -2.7265
14.0738 -8.8511 -1.2120
12.9245 -8.9044 -2.0694
13.2899 -8.7296 -1.2462
12.0317 -8.8724 -2.3524
12.2065 -8.8447 -1.7373
9.9041 -5.2350 -6.2329
13.1021 -11.6863 -5.1974
10.3738 -6.2958 -3.0690
16.9543 -9.3505 8.8090
13.6388 -7.9997 5.1252
10.9269 -12.0005 -3.6460
0.0865 -0.1043 -0.0916
0.0706 -0.0984 -0.1051
0.0477 -0.1120 -0.1705
0.0704 -0.0730 -0.0782
0.0841 -0.0816 -0.1216
0.0634 -0.0765 -0.1121
0.0811 -0.1143 -0.0944
0.0566 -0.0803 -0.0960
0.0765 -0.0846 -0.0934
0.2558 -0.7904 -1.1295
0.0565 -0.1197 -0.0998
0.1545 -0.2216 -0.2524
0.0759 -0.1140 -0.1175
0.0671 -0.0809 -0.0852
-0.0455 -0.5691 -0.2064
0.0469 -0.0879 -0.1602
0.0275 -0.1542 -0.3177
0.2207 -0.2076 -0.5367
0.0579 -0.1640 -0.1178
0.0574 -0.8491 -0.9258
0.3583 -0.7937 -0.9983
0.2011 -0.7935 -1.0614
0.1962 -0.8021 -1.0347
0.1567 -0.8018 -0.8168
0.2959 -0.7703 -1.0008
0.2209 -0.7873 -0.8874
0.2846 -0.7759 -0.8750
-0.0983 -0.8141 -1.1084
0.3191 -0.7856 -0.8521
0.4158 -0.8045 -0.6097
0.3242 -0.7882 -1.1296
-0.0050 -0.8157 -0.9881
0.3576 -0.7734 -1.0076
0.3582 -0.7970 -0.6435
0.0900 -0.8086 -0.9766
0.1813 -0.8447 -1.2571
0.3629 -0.7979 -1.0800
0.1922 -0.7927 -1.1323
0.3768 -0.7717 -1.0383
0.0431 -0.8592 -1.0907
0.0221 -0.8457 -1.0191
0.3911 -0.8067 -0.7577
0.1177 -0.8004 -0.8455
0.2584 -0.7952 -1.0663
0.3261 -0.8014 -1.1683
0.2744 -0.7883 -0.6663
0.0858 -0.7640 -0.8969
0.2515 -0.7841 -0.8513
0.3360 -0.7566 -0.8813
0.3993 -0.8083 -1.0011
0.3717 -0.7489 -0.5522
0.4013 -0.7541 -0.5379
0.3920 -0.7340 -0.6226
-0.1377 -0.8286 -1.1226
-0.3283 -0.8275 -1.0868
-0.2037 -0.9654 -1.2433
0.0647 -0.8261 -0.6924
-0.3919 -0.9274 -1.2373
-0.2024 -0.9267 -0.6605
-0.1273 -0.8635 -0.6087
-0.3123 -0.9311 -1.3028
-0.2640 -0.8388 -1.1729
-0.0919 -0.8770 -0.6360
0.0999 -0.8282 -0.6615
-0.2378 -0.8457 -1.2101
-0.1446 -0.8654 -1.2198
-0.1915 -0.8641 -0.6364
0.0135 -0.8950 -0.6663
-0.4015 -0.8909 -1.0448
-0.2889 -0.8314 -1.0570
-0.2328 -0.8484 -1.0852
-0.2685 -0.8344 -1.1182
-0.2450 -0.8663 -1.1325
-0.1679 -0.8452 -1.0834
-0.1928 -0.8167 -1.0984
-0.1257 -0.8273 -0.8602
-0.1620 -0.8191 -1.0111
-0.0988 -0.8399 -0.9742
0.0579 -0.8404 -1.0543
0.1722 -0.8135 -1.0298
-0.3275 -0.8397 -1.0316
0.0851 -0.8266 -0.7669
0.3067 -0.7916 -0.6371
-0.3683 -0.9237 -0.9586
0.0769 -0.2394 -0.0920
0.0847 -0.1736 -0.1205
0.1635 -0.8056 -0.8714
0.0242 -0.8277 -0.9316
-0.0739 -0.8564 -0.7109
0.0532 -0.8173 -1.1593
0.3916 -0.7934 -0.8994
-0.1752 -0.8526 -1.1186
-0.0966 -0.8336 -0.8681
-0.0487 -0.8437 -1.0574
-0.0405 -0.8415 -1.0127
0.1935 -0.8031 -1.1034
0.2254 -0.7740 -0.8372
0.2598 -0.8003 -1.1635
-0.1687 -0.8514 -0.6682
-0.0047 -0.8460 -0.7068
0.1650 -0.8143 -0.6476
0.1918 -0.7921 -0.7277
-0.3544 -0.8817 -1.0020
-0.3561 -0.8048 -1.1131
-0.2185 -0.8178 -1.0057
-0.1014 -0.8350 -0.9357
-0.0750 -0.8469 -1.1229
0.1192 -0.8037 -1.1431
0.1656 -0.8600 -1.2265
0.1650 -0.8240 -0.5959
0.2024 -0.8203 -0.9213
0.3725 -0.8441 -1.1333
0.4085 -0.8406 -0.5998
-0.1445 -0.8305 -0.6067
-0.0381 -0.8576 -0.8249
-0.3709 -0.8527 -0.8645
-0.3239 -0.8221 -1.0990
-0.1217 -0.8647 -0.5999
-0.1363 -0.8615 -0.9905
0.0306 -0.8053 -0.8449
0.0919 -0.8071 -0.8490
0.1228 -0.8431 -1.1296
0.2049 -0.8233 -0.8540
0.2630 -0.8039 -1.0411
0.2946 -0.8006 -1.1423
0.3272 -0.8027 -1.0430
0.3930 -0.8080 -1.1249
0.3948 -0.8069 -1.0552
0.2642 -0.8347 -0.7041
0.2945 -0.8072 -0.6484
-0.3246 -0.8292 -1.0433
-0.2891 -0.8323 -1.0191
-0.2605 -0.8310 -1.0516
-0.2175 -0.8295 -1.1535
-0.1942 -0.8174 -1.0361
-0.1583 -0.8449 -0.8683
-0.1687 -0.8621 -0.9558
-0.1455 -0.8578 -1.2609
-0.0353 -0.8371 -0.8778
-0.0020 -0.7957 -0.9003
-0.0051 -0.8095 -1.0748
0.0884 -0.8242 -0.9324
0.1263 -0.8386 -0.9867
0.1897 -0.8089 -1.1730
0.2287 -0.8143 -1.1597
0.2798 -0.7738 -0.8722
0.2973 -0.7975 -0.9996
0.3127 -0.8413 -0.9798
0.1682 -0.3946 -0.4384
-0.2770 -0.8760 -0.9347
-0.2809 -0.7934 -1.0976
-0.1950 -0.8487 -0.9064
0.0317 -0.8241 -0.6559
0.0904 -0.8908 -0.6661
0.2287 -0.8201 -0.6562
0.3264 -0.8062 -0.6819
-0.0378 -0.8397 -0.6633
-0.0424 -0.8354 -1.1411
-0.4420 -1.4028 -0.4809
-0.3706 -1.4138 -0.5480
-0.3571 -0.8358 -0.7923
-0.3787 -0.8277 -0.9242
-0.1824 -0.7995 -0.9141
-0.0051 -0.8301 -0.8381
0.0228 -0.8487 -0.8108
0.1643 -0.8315 -0.7323
0.2006 -0.7594 -0.5620
-0.3527 -0.8387 -0.7416
-0.2722 -0.8494 -0.6103
-0.2532 -0.8600 -0.6633
0.0263 -0.8711 -0.7624
0.1026 -0.8418 -0.7419
0.1969 -0.8294 -0.6956
0.2046 -0.8662 -0.5994
0.2882 -0.7979 -0.7082
0.3477 -0.8521 -0.8898
0.0236 -0.8101 -1.1076
-0.1434 -0.8608 -1.1006
0.3469 -0.8199 -1.1329
0.0295 -0.3056 -0.3637
0.0758 -0.1387 -0.0906
0.1257 -0.8314 -0.8417
-0.4089 -1.4170 -0.4830
0.0590 -0.0870 -0.1413
0.0612 -0.0954 -0.1370
0.0519 -0.0969 -0.1449

