-0.0121 -0.5414 0.5059
0.0762 -0.2126 -0.0210
0.2527 -0.7382 -0.0091
0.3038 -0.9080 0.0732
0.0563 -0.1096 0.0117
0.2980 -0.8556 0.3446
0.2299 -0.7857 0.1379
0.2037 -0.7772 0.2614
0.1445 -0.8123 0.1807
0.1325 -0.7478 0.2954
0.1306 -0.8736 0.3097
0.0897 -0.8063 0.1900
0.0137 -0.1965 -0.0014
0.0255 -0.7631 0.3526
-0.0408 -0.7675 0.3329
-0.0189 -0.8099 0.1819
-0.0752 -0.8182 0.2198
-0.0552 -0.9899 0.1877
0.0974 -0.8304 0.6793
0.0642 -0.8619 0.3152
0.0954 -0.7356 0.4150
0.0682 -0.7409 0.4237
0.0112 -0.7355 0.5862
0.0439 -0.8067 -0.0488
-0.0353 -0.9773 0.0454
0.0568 -0.7713 0.1863
0.2383 -0.7857 0.2197
0.2527 -0.7570 -0.0432
0.0588 -0.7525 0.3758
0.0062 -0.1936 0.0001
0.2289 -0.9073 0.1890
-0.0943 -0.8117 0.7057
0.0938 -0.2145 0.0224
-0.0003 -0.7689 0.3941
0.0435 -0.7721 0.2878
0.1560 -0.7527 0.1016
0.0016 -0.8314 0.7006
0.0401 -0.7374 0.5827
0.1605 -0.7924 0.2407
-0.0613 -0.7179 0.4949
0.2973 -0.7048 0.5070
0.2220 -0.9121 0.4585
-0.1500 -0.7931 0.7023
-0.1654 -0.8376 0.3856
-0.0957 -0.7128 0.5877
-0.1078 -0.7629 0.3091
-0.1735 -0.9890 -0.0241
-0.1561 -0.9712 0.0647
0.2955 -0.7663 0.2000
0.2545 -0.7774 0.1013
0.2638 -0.7850 0.1781
0.2431 -0.5787 0.2062
0.2813 -0.8759 0.2377
-0.0548 -0.7574 0.4271
-0.0400 -0.7275 0.4650
0.2445 -0.7816 0.2530
-0.0911 -0.8323 -0.0289
-0.0173 -0.7345 0.5905
0.1412 -0.7912 0.1499
0.1674 -0.8560 0.3331
0.0848 -0.8640 0.0214
0.1006 -0.7691 0.1513
0.0934 -0.8006 0.0543
-0.0632 -0.7922 0.1170
0.1121 -0.7639 0.3398
0.0447 -0.9773 0.0322
0.0045 -0.9853 0.0392
0.0528 -0.7526 0.3441
-0.0512 -1.0000 -0.0444
0.0596 -0.8300 0.6523
0.0020 -0.9405 0.3975
-0.0290 -0.8582 0.3676
0.0721 -0.6832 0.6114
-0.0451 -0.5143 0.3289
-0.0055 -0.1023 0.0084
0.0057 -0.0587 0.0073
-0.2869 -0.8526 0.3398
-0.0911 -0.8244 0.3304
-0.0255 -0.8292 0.3203
-0.1001 -1.0134 -0.0794
0.2776 -0.8371 0.2636
0.0653 -0.8189 0.6774
-0.0230 -0.9184 0.2354
-0.0055 -0.9696 0.3703
0.2376 -0.9049 0.1282
0.1231 -0.9637 0.0198
-0.3656 -0.8730 0.1025
-0.3060 -0.8351 0.3764
0.0161 -0.1313 0.0008
-0.1310 -0.8357 0.2671
0.1584 -0.8285 0.6643
-0.0864 -0.8246 0.3994
-0.1824 -1.0009 -0.0654
-0.0046 -0.1029 0.0046
-0.0920 -0.9997 -0.0378
-0.0750 -0.9784 0.0524
-0.3299 -0.9316 0.0098
-0.1820 -0.7919 0.7070
-0.3600 -0.9111 0.0167
0.1738 -0.8849 -0.0385
0.1393 -0.9613 -0.0580
0.2515 -0.8583 0.4275
0.1519 -0.8897 0.0257
0.0226 -0.0756 0.0190
-0.2463 -0.9946 0.0012
-0.2183 -0.8313 0.0239
-0.2673 -0.9402 -0.0144
-0.4066 -0.9127 -0.0148
0.1716 -0.5164 -0.0009
-0.3254 -0.8054 0.3701
-0.1955 -0.9616 0.0705
0.0226 -0.0102 0.0001
0.1197 -0.9420 0.2177
0.0191 -0.0247 -0.0042
0.0223 -0.5536 -0.0247
0.0195 -0.0707 0.0250
0.0792 -0.1101 0.0672
-0.0641 -0.9255 0.4427
-0.0913 -0.7640 0.4065
0.2678 -0.7997 0.6185
0.2499 -0.8316 0.6476
0.2053 -0.8768 0.1839
0.0352 -0.0576 -0.0031
0.0328 -0.0244 -0.0038
0.0322 -0.0243 -0.0037
0.0338 -0.0232 0.0238
-0.2095 -0.9108 0.0838
-0.2389 -0.9037 0.0679
-0.1845 -0.9459 0.1124
-0.0809 -0.8734 0.1704
0.1841 -0.8827 0.1900
0.1185 -0.9904 -0.0232
0.1303 -0.9670 0.0636
0.0332 -0.8310 0.1459
0.0481 -0.9294 0.2266
0.0202 -0.0355 0.0004
0.0838 -0.9536 0.2255
0.0319 -0.0188 0.0130
0.1497 -0.7679 0.5851
0.0201 -0.0249 -0.0011
0.0719 -1.0139 -0.0629
0.0069 -0.0169 0.0160
0.3159 -0.7665 0.3013
0.0018 -0.0709 0.0577
0.2097 -0.9627 -0.0767
0.1971 -0.8379 0.2449
0.2442 -0.9412 -0.0819
0.0924 -0.8516 0.6612
0.0391 -0.0421 0.0307
0.1918 -0.7294 -0.2204
0.0480 -0.0204 0.0183
0.0394 -0.0424 -0.0099
-0.0153 -0.0618 -0.0119
0.0394 -0.0592 0.0140
0.0127 -0.0125 0.0000
0.0161 -0.0023 0.0007
0.2194 -0.9242 0.0086
0.0237 -0.0291 0.0235
-0.0372 -0.7504 0.3233
-0.0044 -0.0539 0.0033
-0.0007 -0.1016 0.0340
-0.1169 -0.8133 0.4010
0.0319 -0.0387 0.0057
0.0569 -0.0487 0.0407
0.0412 -0.1049 -0.0242
0.0200 -0.0060 0.0020
0.0176 -0.0064 0.0066
0.0318 -0.0374 0.0042
0.0209 -0.0635 0.0106
0.0231 -0.0291 0.0204
0.0602 -0.0415 -0.0070
0.0590 -0.0424 0.0003
0.0248 -0.0036 -0.0020
0.0165 -0.0224 -0.0058
0.0193 -0.0148 0.0009
0.0185 -0.0251 0.0170
0.0144 -0.0058 0.0080
0.0043 -0.0266 0.0184
0.0203 -0.0820 0.0623
0.0311 -0.0275 0.0005
0.0171 -0.0017 -0.0014
0.0132 -0.0198 0.0225
0.0037 -0.0348 0.0004
0.0176 -0.0206 0.0127
0.0551 -0.1858 0.0471
0.0196 -0.0055 -0.0006
0.0206 -0.0024 0.0026
0.0289 -0.0212 0.0138
0.0295 -0.0220 0.0155
0.0300 -0.0275 -0.0041
0.0630 -0.0801 -0.0170
0.0244 -0.0258 0.0255
0.0838 -0.0784 0.0022
0.0129 -0.0203 0.0010
0.0287 -0.0178 0.0131
0.0200 -0.0133 0.0073
0.0693 -0.0415 0.0233
-0.1109 -0.9455 0.0565
0.0030 -0.0494 0.0132
-0.1211 -0.8113 0.7106
0.0338 -0.0425 0.0062
0.2379 -0.9435 -0.1198
-0.2413 -0.8429 0.3663
-0.2467 -0.6912 0.2803
-0.0162 -1.0017 -0.0908
-0.2971 -0.8868 0.0896
-0.0962 -0.9459 0.1423
0.0776 -0.8914 0.4015
0.0190 -0.5201 0.3064
0.0224 -0.0293 0.0035
0.0182 -0.0010 -0.0028
0.0221 -0.0068 -0.0064
0.0627 -0.0784 -0.0157
0.0498 -0.0470 -0.0103
0.0196 0.0014 -0.0046
0.0534 -0.0334 -0.0039
0.0494 -0.0362 0.0326
0.0107 -0.0170 -0.0024
0.0153 -0.0064 -0.0005
0.0899 -0.0782 0.0033
0.0199 0.0010 -0.0028
0.0181 -0.0066 0.0074
0.0258 -0.0030 0.0029
-0.2251 -0.7161 0.6209
-0.0234 -0.8122 0.7217
0.0101 -0.8923 0.4138
0.0321 -0.0117 0.0092
0.0157 -0.0105 -0.0013
0.0171 0.0013 0.0000
0.0298 -0.0239 0.0041
0.0405 -0.0805 0.0132
0.0266 -0.0079 -0.0009
0.0209 0.0028 -0.0040
0.0176 -0.0088 0.0089
0.0210 0.0056 -0.0030
0.0097 -0.0192 0.0147
0.0045 -0.0455 0.0432
0.0383 -0.0661 0.0142
0.0368 -0.0639 0.0140
0.0070 -0.0206 0.0068
0.0180 -0.0313 0.0087
-0.0146 -0.1183 -0.0003
0.0183 -0.0227 0.0042
-0.0170 -0.0777 0.0142
0.0209 0.0014 -0.0012
0.0186 0.0019 0.0006
0.0300 -0.0342 0.0243
0.0280 -0.0341 0.0229
0.0199 0.0017 0.0002
0.0287 -0.0130 -0.0004
0.0262 0.0016 -0.0009
0.0243 -0.0028 0.0015
0.0251 -0.0102 0.0035
0.0226 -0.0182 -0.0021
0.0166 -0.0052 0.0105
0.0170 -0.0438 0.0107
0.0033 -0.0448 0.0482
0.0199 -0.0484 0.0384
0.0897 -0.1939 0.0410
0.1078 -0.1690 0.0818
0.0436 -0.1722 -0.0114
0.0236 0.0002 -0.0009
0.0198 -0.0058 -0.0072
0.0184 0.0002 -0.0048
0.0181 0.0023 0.0011
0.0211 -0.0428 -0.0123
0.0176 -0.0015 0.0023
0.0463 -0.0582 0.0286
0.0114 -0.0782 -0.0018
0.0181 -0.0064 -0.0057
0.0094 -0.0583 -0.0016
0.0081 -0.0197 -0.0002
0.0177 -0.0213 0.0040
0.0227 -0.0060 -0.0023
0.0283 -0.0267 -0.0079
0.0199 0.0004 0.0029
0.0186 -0.0195 0.0009
0.0318 -0.0218 0.0160
0.0041 -0.0401 0.0412
0.0256 -0.0065 -0.0058
0.0137 -0.0065 -0.0024
0.0231 -0.0040 -0.0043
0.0215 -0.0022 -0.0046
0.0242 -0.0045 -0.0022
0.0173 -0.0015 -0.0025
0.0279 -0.1015 0.0047
0.0140 -0.0158 -0.0045
0.0199 0.0001 -0.0049
0.0189 0.0002 -0.0049
0.0170 -0.0102 -0.0044
0.0266 -0.0021 0.0020
0.0226 -0.0015 0.0015
0.0276 0.0030 -0.0022
0.0259 -0.0140 0.0143
0.0240 -0.0031 0.0024
0.0286 -0.0314 0.0254
0.0201 -0.0150 0.0094
0.0316 -0.0121 0.0096
0.0234 -0.0066 0.0027
0.0088 -0.0171 -0.0015
0.0158 -0.0104 -0.0004
0.0306 -0.0255 -0.0013
0.0097 -0.0164 0.0156
0.0244 0.0000 0.0007
0.0202 0.0001 -0.0049
0.0186 0.0001 -0.0046
0.0221 -0.0296 0.0253
0.0205 -0.0394 0.0061
0.0223 -0.0240 0.0027
0.0267 -0.0835 0.0078
0.0371 -0.0271 0.0224
0.0289 -0.0249 -0.0025
0.0184 -0.0082 -0.0007
0.0458 -0.0590 0.0076
0.0242 -0.0273 0.0028
0.0063 -0.0266 0.0020
0.0187 -0.0131 -0.0002
0.0062 -0.0728 0.0608
0.0106 -0.0243 0.0271
0.0209 -0.0255 0.0209
0.0137 -0.0158 0.0108
0.0294 -0.0265 0.0238
0.0123 -0.0335 0.0270
0.0164 -0.0230 -0.0039
0.0279 -0.0211 0.0145
0.0275 -0.0014 0.0005
0.0213 -0.0046 0.0048
0.0212 -0.0084 -0.0054
0.0226 -0.0096 0.0087
0.0122 -0.0161 -0.0027
0.0090 -0.0236 0.0065
0.0253 -0.0193 0.0136
0.0181 -0.0342 0.0087
0.0159 -0.0082 -0.0023
0.0238 -0.0127 0.0084
0.0205 -0.0013 0.0032
0.0339 -0.0416 -0.0078
0.0143 -0.0356 -0.0040
0.0195 -0.0037 -0.0045
0.0215 0.0036 -0.0039
0.0199 -0.0215 0.0215
0.0171 -0.0105 -0.0040
0.0257 -0.0078 -0.0060
0.0234 0.0043 -0.0023
0.0215 0.0034 -0.0044
0.0252 -0.0060 -0.0052
0.0213 -0.0001 -0.0029
0.0218 -0.0194 0.0184
0.0266 -0.0074 -0.0009
0.2101 -0.5443 0.1016
0.2639 -0.5583 0.2462
0.1821 -0.5402 0.4120
0.2304 -0.5460 0.2215
-0.1266 -0.4882 0.2495
0.2219 -0.5496 0.0668
-0.0938 -0.4902 0.4341
0.0215 -0.5437 0.4532
-0.0268 -0.5087 0.4097
0.1292 -0.5321 0.4411
0.2465 -0.5282 0.4102
-0.0794 -0.4913 0.2633
0.2065 -0.5258 0.4175
0.2984 -0.5465 0.3418
0.2480 -0.5340 0.2104
-0.0972 -0.5248 0.4912
0.2407 -0.5316 0.3903
0.0020 -0.4832 0.2400
-0.0732 -0.4862 0.1923
0.1791 -0.5321 0.1265
0.0258 -0.5177 0.2757
0.2027 -0.5308 0.2208
0.2207 -0.5637 0.2610
0.1033 -0.5301 -0.0304
0.2145 -0.5745 0.1915
0.1268 -0.5454 0.4296
-0.0639 -0.4875 0.2357
0.1098 -0.5076 -0.0361
-0.1017 -0.5139 0.2789
-0.1383 -0.5104 0.4634
-0.1250 -0.4834 0.4601
0.1918 -0.5436 -0.0218
0.1892 -0.5506 0.0569
0.1912 -0.5329 0.1751
-0.0863 -0.5813 0.5130
-0.0493 -0.5026 0.2160
0.0521 -0.6202 0.5150
-0.1423 -0.4921 0.2565
0.2693 -0.5329 0.4092
0.2684 -0.5086 0.3644
0.1226 -0.4921 -0.0209
-0.0624 -0.5757 0.5023
0.0653 -0.5245 -0.0327
-0.1101 -0.5473 -0.0031
0.0797 -0.5890 0.5058
0.0340 -0.5738 0.5034
-0.1044 -0.5633 0.0370
-0.2404 -0.5765 0.0715
-0.1501 -0.5618 0.2400
-0.0435 -0.5361 -0.0098
0.1413 -0.5846 0.4605
0.0868 -0.5387 -0.0378
-0.1693 -0.5891 0.0068
0.0744 -0.5880 0.4800
0.0638 -0.5405 0.3223
0.2091 -0.5509 0.2022
-0.0873 -0.5342 0.2628
0.0694 -0.5726 -0.0215
0.0004 -0.5641 -0.0155
-0.0451 -0.5496 0.3523
0.2232 -0.5718 0.2362
0.2553 -0.5469 0.0905
0.2497 -0.5866 0.2471
0.2277 -0.5900 0.2550
-0.0349 -0.5547 0.0405
0.1550 -0.5785 0.1838
0.1497 -0.5827 0.1589
-0.0405 -0.5542 0.0151
0.1904 -0.5577 0.0902
0.0625 -0.5635 -0.0467
0.2767 -0.5925 0.2431
0.1781 -0.5761 0.1767
0.1945 -0.5679 0.2510
0.0704 -0.5541 0.0041
-0.0522 -0.5577 -0.0314
0.1035 -0.5569 -0.0604
0.1820 -0.5719 0.0333
0.1451 -0.5712 -0.0125

