-0.4649 -0.8953 1.0474
-0.2174 -0.7717 1.0453
-0.2873 -0.7811 1.0212
-0.7403 -1.5951 0.3474
-0.0597 -0.0540 0.0607
-0.0485 -0.0281 0.0204
-0.0297 -0.0040 -0.0191
-0.0515 -0.0129 0.0230
-0.0218 -0.0093 -0.0114
-0.0234 -0.7128 0.3809
-0.2388 -0.7725 1.0352
-0.3002 -0.7856 1.0507
-0.1056 -0.1182 0.1267
-0.9115 -0.8839 0.7476
-0.0382 -0.0170 0.0152
-0.0545 -0.0350 -0.0083
-0.4259 -0.7787 0.9773
-0.5433 -0.7940 0.9311
-0.0045 -0.0566 0.0183
-0.2293 -0.7729 1.0706
-0.1865 -1.6661 0.7581
-0.0997 -0.0692 0.0566
-0.2700 -0.7696 1.0444
-0.7559 -0.8009 1.0124
-0.0523 -0.0131 -0.0007
-0.0730 0.0234 0.0627
-0.1302 -1.6436 0.9872
-0.0480 -0.0612 0.0194
-0.0887 0.0020 0.0657
-0.0376 0.0051 0.0045
-0.5908 -0.7906 0.8681
-0.2672 -0.7892 1.1065
-0.1297 -0.0453 0.1070
-0.1189 -0.0463 0.1064
-0.1165 -0.0447 0.1080
-0.0967 -0.0295 0.1058
-0.0911 -0.0321 0.1000
-0.2692 -0.7906 1.0426
-0.0743 -0.0069 0.0849
-0.0860 -0.0628 0.1543
-0.0876 -0.0584 0.1370
-0.1389 -0.1013 0.1789
-0.1029 -0.0352 0.0974
-0.1433 -0.1243 0.0986
-0.1127 -0.0489 0.1476
-0.1022 -0.0215 0.1043
-0.0838 -0.0060 0.0769
-0.0782 -0.0157 0.0917
-0.1215 -0.0616 0.1737
-0.0896 -0.0452 0.1349
-0.1173 -0.0421 0.1302
-0.0886 -0.0066 0.0799
-0.1271 -0.0713 0.1478
-0.1161 -0.0486 0.1185
-0.0684 -0.0022 0.0781
-0.0760 -0.0098 0.0816
-0.0702 0.0049 0.0644
-0.0644 0.0050 0.0703
-0.1152 -0.0534 0.1533
-0.0789 0.0024 0.0666
-0.0669 0.0055 0.0720
-0.1265 -0.0470 0.1261
-0.1062 -0.0508 0.1251
-0.1085 -0.0355 0.1081
-0.0627 0.0079 0.0709
-0.0674 -0.0026 0.0763
-0.1609 -0.1112 0.1747
-0.0830 -0.0324 0.1180
-0.1812 -0.1258 0.2037
-0.1310 -0.1977 0.3070
-0.1007 0.0007 0.1699
-0.1074 -0.0344 0.1457
-0.2202 -0.1809 0.2420
-0.2265 -0.1569 0.2439
-0.1806 -0.1372 0.2984
-0.9712 -0.9165 0.8211
-0.2286 -0.1921 0.2759
-0.1317 -0.1127 0.2235
-0.1109 -0.1008 0.1938
-0.6897 -0.6645 0.6385
-0.1506 -0.1422 0.2432
-0.0741 -0.0421 0.1532
-0.0824 -0.0512 0.1644
-0.0804 -0.0087 0.1280
-0.1034 -0.0259 0.1379
-0.0660 -0.0180 0.1158
-0.1027 -0.0367 0.1392
-0.0851 -0.0061 0.1215
-0.1037 -0.0264 0.1465
-0.0826 -0.0066 0.1194
-0.6853 -0.8514 0.8927
-0.4528 -0.8980 1.0249
-0.8724 -0.8883 0.7751
-0.4780 -0.8920 1.0700
-0.8392 -0.8830 0.8205
-0.7455 -0.8912 0.8518
-0.4984 -0.9058 1.1118
-0.4289 -0.8801 1.0556
-0.5420 -0.9063 1.0167
-0.6269 -0.8822 1.1055
-0.6580 -0.8833 1.0557
-0.7229 -0.8893 1.0608
-0.6581 -0.8816 0.9510
-0.7588 -0.8723 0.8896
-0.7698 -0.8775 0.8497
-0.7460 -0.8660 0.8286
-0.7904 -0.8747 0.8418
-0.7587 -0.8741 0.7920
-0.8259 -0.8847 0.7969
-1.1002 -1.5901 0.6705
-1.1262 -1.6164 0.6908
-1.1916 -1.6465 0.6753
-1.2252 -1.6784 0.6544
-0.1503 -1.5644 0.7608
-0.1404 -1.6766 0.9760
-0.1894 -1.6241 0.9209
-0.1909 -1.5151 0.6614
-1.0070 -0.8777 1.1322
-0.6104 -0.8783 0.9744
-0.6247 -0.8774 0.9988
-0.6563 -0.8486 0.8442
-0.9064 -0.9114 1.3240
-0.7889 -0.8928 0.8276
-1.0334 -0.8802 1.0220
-1.5278 -1.7227 0.4558
-1.2352 -0.9378 1.3200
-0.9624 -0.8959 1.0432
-0.9093 -0.8899 1.0582
-0.6710 -0.9185 1.1343
-0.8479 -0.8813 0.9461
-0.8485 -0.8908 1.0604
-0.7518 -0.9921 0.9842
-0.9228 -0.8793 0.7670
-0.9088 -0.8918 0.7900
-0.8645 -0.8878 0.8107
-2.4089 -1.0305 2.5193
-2.8591 -1.1537 2.3694
-2.5911 -0.9951 2.1923
-1.0701 -0.8937 1.1171
-0.9428 -0.9389 1.3164
-1.7840 -0.9817 0.7535
-2.0157 -1.1122 0.9212
-2.0510 -1.0282 0.9114
-2.0294 -0.8944 1.0014
-1.8877 -1.0885 0.7747
-0.8642 -0.8825 1.0378
-0.6493 -0.9082 0.9910
-0.6478 -0.8901 0.9336
-0.6885 -0.8938 0.9487
-0.8145 -0.8806 0.8290
-0.8627 -0.8713 0.7913
-0.1082 -1.8906 0.8606
-2.9179 -1.1562 2.2823
-0.7319 -0.8832 0.8789
-0.7419 -0.9341 1.1111
-0.7751 -0.8809 0.8196
-0.7305 -1.0901 -0.0144
-1.6321 -0.8026 1.0841
-1.1780 -1.6429 0.6836
-1.7891 -0.8693 1.1847
-0.9783 -1.5295 0.1840
-0.5230 -0.9016 1.0568
-0.5272 -0.9242 1.0129
-0.5750 -0.9096 1.0346
-0.6418 -0.8894 0.9356
-0.6690 -0.8960 0.9281
-0.9290 -1.5363 0.2128
-0.2105 -1.6138 0.7381
-0.3822 -1.5923 0.5591
-0.8201 -1.7988 0.3604
-0.2944 -1.6819 0.8750
-0.1578 -1.5643 1.0415
-0.4473 -0.8698 1.0866
-0.4828 -0.8593 1.0867
-0.4889 -0.9077 1.1151
-0.4387 -0.8515 1.0044
-0.4274 -0.8523 0.9806
-0.1033 -1.6442 0.7660
-0.4787 -0.8532 1.0158
-0.5107 -0.8599 0.9720
-0.5374 -0.8680 0.9687
-0.6320 -1.7908 0.4405
-0.5797 -0.9039 1.2740
-0.2273 -0.8511 1.1425
-0.2372 -0.8664 1.1267
-0.2505 -0.8654 1.1508
-0.2889 -0.9255 1.2771
-0.2624 -0.8745 1.1239
-0.2503 -0.8741 1.0995
-0.2807 -0.8600 1.0953
-0.3179 -0.8641 1.1134
-0.3029 -0.8570 1.0804
-0.2938 -0.8670 1.0682
-0.3946 -0.9127 1.2381
-0.3758 -0.8642 1.1161
-0.3586 -0.8540 1.0798
-0.4009 -0.8607 1.1619
-0.4161 -0.8584 1.0233
-0.5306 -0.8708 1.0086
-0.6498 -0.9380 1.0663
-1.7241 -0.9921 0.7424
-1.1520 -0.5323 2.4831
-1.2281 -0.6235 2.5916
-0.4566 -0.8613 1.0386
-0.6621 -0.8672 0.9288
-0.6927 -0.8962 0.9188
-0.7573 -0.8475 1.0062
0.0341 -1.4830 1.2491
-0.3363 -0.8528 1.0890
0.0147 -1.5367 1.2613

