0.0034 0.0014 -0.0046
-0.0023 0.0016 0.0016
0.0324 -0.0922 0.0114
-0.0087 0.0284 -0.0062
0.0332 0.0016 0.0692
-0.0054 0.0250 -0.0069
0.0000 -0.0821 0.0407
-0.0127 0.0158 -0.0011
-0.0005 -0.0445 0.0209
0.0123 0.0049 0.0088
-0.0297 -0.0660 0.0281
-0.0101 0.0097 -0.0031
-0.0009 -0.0096 -0.0004
0.4327 -0.7919 0.5453
0.5374 -0.8754 0.5957
0.4635 -0.7981 0.5851
0.8004 -0.9653 0.7204
0.4833 -0.7927 0.5577
0.2901 -1.5624 0.4950
0.9434 -0.9341 0.5622
0.0302 -1.5631 0.9542
0.1666 -1.6132 0.3858
0.1558 -1.5539 0.6431
-0.0088 -1.6597 0.9375
0.6723 -0.8603 0.7542
1.1253 -1.0512 2.5641
0.7583 -0.9918 2.6677
0.0217 -1.4097 0.8444
0.1940 -0.8410 0.6407
1.4026 -1.5398 3.6434
0.7503 -0.6907 1.7865
-0.1637 -1.0256 1.5422
-0.5428 -1.5609 0.8612
-0.6140 -1.6225 0.6630
-0.1173 -0.9624 1.7941
-0.6173 -1.7171 0.9615
-0.1222 -0.8526 1.6801
-0.4155 -1.4522 0.6146
-0.5978 -1.8748 0.8055
0.4813 -1.3866 3.2967
0.2084 -0.9053 0.6720
-0.0808 -1.5179 0.4720
-0.2203 -0.4669 0.2285
-0.4688 -1.8252 0.7305
-0.5474 -1.7467 0.8997
-0.4755 -1.1880 0.4260
-0.5606 -1.5083 0.6004
-0.6382 -1.7402 0.8380
-0.5949 -1.4834 0.5432
-0.5869 -1.5758 0.8116
-0.6050 -1.4666 0.7383
-0.4489 -1.2748 1.5099
-0.7142 -1.6083 0.5853
-0.6758 -1.5933 1.0496
-0.6758 -1.4507 0.8597
-0.7753 -1.6934 1.0656
-0.0720 -0.7414 1.4932
-0.2047 -0.7379 1.8027
-0.4171 -1.1569 1.6274
-0.5703 -1.5876 1.3294
-0.6380 -1.6136 1.1795
-0.4852 -1.3208 1.6420
-0.5153 -1.3582 1.7788
-0.5327 -1.2535 1.7837
1.1482 -1.1157 2.3146
-0.2961 -1.3107 1.6997
-0.2055 -1.0906 0.3102
-0.3056 -0.5510 0.7234
0.0115 -0.2869 0.3703
0.1637 -1.1226 0.4057
-0.6825 -1.7148 2.1019
-0.2900 -0.6572 2.0153
-0.8396 -1.8119 0.5763
-0.2226 -0.3048 0.3691
-0.4256 -0.6738 1.9824
-0.3642 -1.0246 0.6227
-0.3151 -0.3360 0.2462
-0.2587 -0.5121 0.6833
-0.3089 -0.4452 0.3110
-0.2422 -0.6011 0.4047
-0.2377 -0.1313 0.2160
0.1549 -1.1698 0.2056
-0.0366 -1.0317 0.6784
0.3463 -0.6954 1.4473
-0.0157 -1.4056 0.7185
-0.1100 -0.8951 1.2636
-0.0770 -0.9949 1.8944
-0.3949 -1.4568 0.5707
-0.1591 -1.1935 1.6262
-0.3298 -1.4947 0.6015
0.0030 -1.3382 0.8098
0.0342 -0.0951 0.4302
0.8787 -1.0583 2.7168
-0.0881 -0.2643 0.1933
1.1560 -1.1151 2.2667
-0.1394 -0.0626 0.3804
0.7667 -1.1049 3.1243
1.1613 -0.8488 2.2368
0.9987 -0.8101 2.2873
0.7317 -0.9337 2.4499
1.2440 -1.2050 2.4989
0.5194 -0.8138 0.5677
0.4541 -0.7404 0.5288
0.4835 -0.8240 0.6012
0.2848 -0.7449 0.6861
0.4612 -0.7704 0.5320
0.5731 -0.8081 1.0098
1.1894 -1.3474 3.2096
1.4102 -0.9274 2.0685
0.5482 -0.6836 0.5123
-0.5426 -1.2604 0.5478
1.1916 -1.1841 2.3351
-0.1617 -1.5648 0.5553
1.3114 -0.7909 1.9832
0.7222 -0.7643 0.4322
0.7402 -0.8215 0.4646
0.6070 -0.8296 0.7214
0.4135 -0.7637 0.4968
0.2255 -1.3871 0.2241
0.5260 -0.8173 0.2514
0.8309 -0.8224 0.4982
0.7401 -0.7826 0.4898
0.4874 -1.4042 0.2027
0.8049 -0.7937 0.4937
0.5423 -0.8181 0.4889
0.5501 -0.7573 0.6367
0.8983 -0.7831 0.6520
0.1601 -0.7722 0.6049
-0.1665 -0.1320 0.2030
1.3599 -1.0222 2.0094
1.5571 -0.9714 2.0901
1.1943 -0.8519 2.3269
0.3715 -0.8055 0.4773
0.7300 -0.8422 0.4476
1.2306 -0.7326 1.8837
0.1644 -1.6016 0.3815
0.4435 -0.7389 0.5444
0.4142 -0.7375 0.5123
0.4220 -0.6739 0.4833
0.6900 -0.6972 0.4439
0.3138 -0.6854 0.6091
0.6094 -0.7273 0.5498
1.1479 -0.8385 0.4726
2.1216 -0.8554 0.7152
2.2184 -0.8443 0.7418
0.6689 -0.7651 0.3844
0.6689 -0.7217 0.3733
1.0820 -0.8873 2.1279
0.8433 -0.8623 0.5190
1.7421 -0.8322 0.5079
0.5865 -0.6541 0.3644
0.6442 -0.6957 0.4099
0.3005 -0.7455 0.7426
1.7157 -0.5396 0.5454
0.5043 -0.7840 0.2467
0.3537 -0.7184 0.4352
0.6777 -0.7087 0.4141
0.7611 -0.7837 0.4949
0.2809 -0.4838 0.3600
0.6181 -0.6450 0.7228
0.5599 -0.7628 0.6430
0.7761 -0.7349 0.2046
0.4707 -0.7729 0.5481
0.3708 -0.7059 0.4529
1.3353 -1.4193 2.3943
0.7321 -0.8639 0.4203
0.7553 -0.7507 0.5728
0.5721 -0.7697 0.6716
0.5763 -0.7437 0.6737
0.4952 -0.7618 0.2197
0.5014 -0.7676 0.2400
0.4462 -0.7988 0.5344
0.4034 -0.7492 0.4888
0.6108 -0.7582 0.3797
0.4965 -0.7912 0.3692
1.0447 -0.5895 1.0444
0.8951 -0.7261 0.4257
0.8402 -0.7700 0.5513
0.7779 -0.7658 0.4682
0.2902 -0.7606 0.7456
0.6019 -0.8403 0.4574
0.4421 -0.7732 0.5220
0.4623 -0.7927 0.5626
0.6024 -0.7560 0.6826
0.7799 -0.7695 0.4806
0.7470 -0.7606 0.4875
0.5363 -0.7471 0.3764
0.7295 -0.7759 0.4380
0.7120 -0.6386 0.1904
0.6688 -0.7510 0.7428
0.6468 -0.7323 0.0550
0.6396 -0.7603 0.3152
0.7660 -0.7721 0.4390
0.5533 -0.7520 0.2891
0.7219 -0.7619 0.4553
0.4415 -0.7544 0.8677
0.6580 -0.7489 0.0635
0.3718 -0.7520 0.5234
0.2940 -0.7269 0.7219
1.3980 -1.1211 2.0672
0.6961 -0.7278 0.7924
0.5169 -0.7629 0.7768
0.5598 -0.7747 1.0056
0.4340 -0.7243 0.8622
0.4070 -0.7370 0.8436
0.3111 -0.7663 0.4238
2.4576 -1.3619 1.5253
2.2176 -1.3783 1.7078
1.8411 -1.2737 1.8618
2.1747 -1.3522 1.8067
0.5118 -0.7612 0.5957
0.3960 -0.7711 0.4765
0.5396 -0.8036 0.6471
0.9082 -0.7898 0.6562
0.4663 -1.4304 -0.0548
0.3664 -0.7521 0.4456
0.3996 -0.7811 0.5001
0.3373 -0.7548 0.7845
0.5018 -0.7656 0.2258
0.4145 -0.7596 0.8695
0.7305 -0.7628 0.8262
0.7131 -0.7789 0.3992
0.7886 -0.8305 0.5146
0.6249 -0.7553 0.5647
0.9734 -0.7531 0.3157
1.3074 -0.9957 1.9311
1.0474 -0.9886 2.0418
0.9654 -0.7458 0.3153
0.9324 -0.7772 0.6536
0.6047 -0.8054 0.3015
0.3081 -0.7671 0.7029
2.7171 -1.0669 0.9642
1.0895 -0.7868 0.4523
0.4577 -0.7671 0.5618
0.2201 -0.5793 0.5726
0.6671 -0.7604 0.0661
0.5020 -0.7597 0.2434
0.6653 -0.7676 0.4093
0.7725 -0.7895 0.4977
0.3048 -0.7991 0.7780
0.7808 -0.7651 0.4887
0.7345 -0.8654 0.4669
0.2850 -0.7605 0.7416
0.8564 -1.4592 -0.1864
0.4269 -0.7646 0.5250

