0.5572 -1.4211 2.3347
0.4549 -1.0148 1.5367
0.3138 -0.7271 1.1594
-0.3397 -0.6167 1.0374
0.2061 -1.5237 1.1360
-0.4157 -0.7400 1.3777
-0.0335 -0.1279 0.2487
0.6362 -1.3632 1.1717
-0.0418 -0.1805 0.3111
0.0141 -0.0321 0.1094
0.0108 -0.0445 0.1251
0.0090 -0.0330 0.1105
0.0837 -0.1214 0.1343
-0.0280 -0.1870 0.3544
0.0634 -0.0361 0.0994
0.0379 0.0012 0.1298
0.1010 -0.0275 0.1639
0.0241 -0.1304 0.2461
0.0447 0.0138 0.0340
0.0506 0.0196 0.0250
0.0573 -0.0832 0.1711
0.0478 -0.0205 0.0593
0.0467 0.0020 0.0258
-0.0197 -0.1951 0.1655
0.1034 -0.1135 0.3258
0.0355 -0.0238 0.2622
0.0362 0.0035 0.0186
-0.0178 -0.5420 0.2496
0.0537 -0.0135 0.0836
0.0345 -0.0214 0.0862
-0.1874 -0.6353 0.9028
0.1330 0.0087 0.1321
0.0700 -0.2163 0.3625
0.0089 -0.0634 0.1474
0.0547 0.0317 0.0382
0.0837 -0.5835 0.9323
-0.0489 -0.3160 0.7472
0.0875 -0.1800 0.3168
0.1201 -1.5359 0.9401
0.0562 -0.0384 0.0550
0.0225 -0.0116 0.0752
-0.0143 -0.0524 0.4887
0.1850 -0.0411 0.4472
-0.0038 -0.0344 0.0646
0.0632 -0.0870 0.2001
0.0415 -0.0058 0.2027
0.7031 -0.7106 3.7418
-0.0008 -0.5166 2.3218
0.0174 -0.0271 0.1398
0.8686 -0.4115 2.7035
0.0768 -0.1342 0.1418
0.1085 -0.0736 0.0764
0.0676 0.0509 0.0844
0.1486 -0.3329 0.5269
0.1172 -0.0846 0.1365
0.0663 0.0600 0.0214
0.0645 -0.1015 0.2904
0.2430 -0.7510 1.1896
0.1700 -0.9259 1.4915
0.1123 0.0517 0.1138
0.0909 0.0127 0.1197
-0.1733 -0.9440 1.5200
0.0399 0.0281 0.0123
-0.1313 -0.9574 1.5001
0.0844 0.0586 0.1002
0.0470 -0.2356 0.1519
0.0302 -0.0174 0.0790
0.3925 -0.9834 1.5394
0.1048 -0.0163 0.0656
0.0802 0.0326 0.0826
0.0993 0.0326 0.1806
0.0573 -0.0163 0.1645
-0.0713 -0.4257 0.3775
0.0782 0.0596 0.0666
0.1201 -0.1429 0.1331
0.0440 -0.0979 0.0858
0.0741 -0.0394 0.1330
0.0715 0.0065 0.1824
0.0659 0.0102 0.1670
0.0383 -0.1790 0.2150
-0.0216 0.0485 0.2530
0.0179 -0.1716 0.3713
-0.1022 -0.0417 0.6149
-0.0345 -0.2707 0.4786
0.1196 -0.1073 0.3293
0.0797 -0.0306 0.4048
0.1438 -0.2082 0.3687
0.0592 -0.0815 0.2746
-0.0561 -0.3014 0.5624
0.0172 -0.1507 0.4068
0.0368 -0.0770 0.3119
0.1191 -0.0769 0.2899
0.0752 -0.0494 0.2498
-0.1951 -0.1460 0.6787
0.1244 -0.0929 0.2332
0.1044 -0.0155 0.2097
-0.1109 -0.7482 1.2168
0.1548 -0.6932 1.1531
0.3545 -0.7079 1.1062
0.3705 -0.7366 1.2270
-0.3034 -0.7323 1.1823
0.3610 -0.7347 1.5500
0.3679 -0.7465 1.3144
-0.3869 -0.7492 1.2003
-0.3700 -0.7183 1.5183
-0.3821 -0.7418 1.2620
-0.3843 -0.6978 1.4340
-0.1773 -1.4657 0.9004
-0.7088 -1.5115 1.1624
-0.3913 -0.7357 1.3276
0.3366 -0.7226 1.6674
0.6232 -1.4144 1.1926
0.6234 -1.4632 1.1701
0.3230 -0.6914 1.3692
0.3667 -0.7476 1.5050
0.1967 -1.3866 0.7470
0.2686 -0.7483 1.2006
0.1855 -0.6918 1.1149
0.1861 -0.7452 1.4260
0.0471 -0.7304 1.1661
-0.0415 -0.7239 1.1889
-0.1127 -0.7009 1.2114
-0.1958 -0.7365 1.1598
-0.2314 -0.7182 1.1653
-0.3424 -0.7123 1.2540
0.3585 -0.6755 1.1566
0.1320 -0.7363 1.1733
-0.0793 -0.7506 1.2543
-0.0740 -0.7400 1.1749
-0.1446 -0.7164 1.4865
-0.1353 -0.7458 1.1732
-0.1921 -0.7444 1.3549
-0.3484 -0.7000 1.3050
0.2224 -0.7139 1.1072
0.2215 -0.7528 1.3004
0.1587 -0.7356 1.3817
0.1587 -0.7583 1.3125
0.0886 -0.7533 1.4289
0.0766 -0.7388 1.2134
-0.3359 -0.7481 1.1638
0.0067 -0.7186 2.0078
0.2418 -0.7275 1.3951
0.4291 -0.8707 1.6854
0.1139 -0.7166 1.3790
0.1087 -0.7463 1.1914
0.0191 -0.7432 1.2181
0.3504 -0.7094 1.1177
0.5842 -1.3283 1.1220
-0.2060 -0.6799 1.9193
-0.0862 -0.7435 1.6939
-0.6102 -1.4637 1.1373
-0.0102 -0.7180 1.1501
0.4310 -1.4782 0.6905
0.3537 -0.7267 1.6118
0.2171 -0.7375 1.3817
-0.0413 -0.7531 1.4245
-0.2193 -0.6975 1.5827
-0.1426 -1.4259 0.5701
0.2192 -0.6886 1.0400
0.6352 -0.8603 2.7321
-0.6483 -1.4262 1.1194
0.3343 -0.7393 1.1928
0.1276 -0.7338 1.3468
-0.0057 -0.7446 1.3789
-0.0158 -0.7477 1.2539
-0.1848 -0.6707 1.3089
-0.1651 -0.7196 1.1696
-0.2549 -0.6923 1.3342
-0.2643 -0.7376 1.3401
-0.3236 -0.7361 1.3307
-0.2935 -0.6953 1.3670
0.3504 -0.7414 1.3952
0.1382 -0.7483 1.1339
0.0460 -0.7519 1.2645
-0.0368 -0.7436 1.3467
0.3646 -0.7088 1.1202
0.2588 -0.7573 1.3850
0.2229 -0.7506 1.4056
0.1914 -0.7462 1.3642
0.1927 -0.7254 1.2359
0.1720 -0.7392 1.1421
0.1141 -0.7459 1.1959
-0.0384 -0.7389 1.3075
-0.2600 -0.7400 1.3426
-0.2889 -0.7475 1.3152
0.1696 -0.7463 1.1125
0.2040 -0.7649 1.2171
0.2588 -0.7331 1.2504
0.0839 -0.7283 1.4593
0.0303 -0.7421 1.3353
-0.3554 -0.7337 1.1041
-0.3994 -0.7349 1.3948
-0.1410 -0.7356 1.6764
0.0524 -0.7472 1.4500
0.0854 -0.7509 1.1631
0.3694 -0.7427 1.1622
0.0242 -0.7413 1.4082
-0.1007 -0.7378 1.3982
-0.2988 -0.7434 1.6682
-0.3654 -0.7404 1.3700
-0.3935 -0.7364 1.4095
-0.6195 -1.3537 1.1484
0.6548 -1.4479 1.1843
0.3502 -0.7455 1.4673
0.3477 -0.7368 1.7026
-0.6751 -1.4591 1.1329
0.2756 -0.7316 1.6882
0.2207 -0.7446 1.4616
0.2257 -0.7449 1.2973
-0.1587 -0.7395 1.3893
0.3020 -0.7530 1.2434
0.1902 -0.7470 1.4328
0.1651 -0.7443 1.2220
0.1308 -0.7438 1.2555
0.0528 -0.7493 1.1961
-0.0676 -0.7425 1.3735
-0.1559 -0.7615 1.3480
-0.1382 -0.7406 1.2370
-0.1934 -0.7477 1.1131
-0.2342 -0.7388 1.1985
-0.2695 -0.7417 1.2300
-0.3796 -0.7467 1.1983
0.3153 -0.7374 1.3526
-0.0407 -0.7668 1.1754
0.3695 -0.7345 1.4913
0.3894 -1.4669 0.6651
-0.0219 -1.5214 0.7543
0.0276 -0.7270 1.1315
-0.3022 -0.7445 1.1965
0.2336 -0.7564 1.1693
0.1372 -0.7642 1.2123
-0.2721 -0.7595 1.1846
0.6294 -1.3750 1.2565
0.2080 -1.4902 0.8280
-0.1737 -0.7417 1.2706
-0.3061 -1.4455 0.7097
-0.4303 -1.4362 0.6584
0.5178 -1.1637 1.0951
0.0591 -0.7299 1.1126
0.2817 -0.7365 1.6224
0.5452 -0.8388 2.8442
-0.3330 -0.7249 1.2038
0.2645 -1.3375 0.7689
0.0587 -0.7429 1.3802
-0.1852 -1.3730 0.8580
-0.2868 -0.7423 1.3065
-0.3582 -0.7537 1.3148
0.1543 -0.7253 1.4336
-0.3678 -1.4428 1.0996

