-0.0777 -0.5353 -0.0205
-0.1381 -0.5444 -0.0605
-0.1359 -0.5312 -0.0300
-0.1308 -0.5081 0.0175
-0.1664 -0.5526 -0.0821
-0.2090 -0.5082 -0.1821
-0.2410 -0.5485 -0.1822
-0.2386 -0.5266 -0.1482
-0.0870 -0.5380 -0.0345
-0.2249 -0.5180 -0.0657
-0.2377 -0.5284 0.1306
-0.2773 -0.5894 -0.0519
-0.1202 -0.5653 -0.2058
-0.1205 -0.8445 -0.3610
-0.0034 -0.9753 -0.2868
-0.1967 -0.5659 -0.0866
-0.0097 -0.8761 -0.2797
-0.1485 -0.5137 0.0501
-0.2542 -0.4999 -0.1482
-0.1746 -0.5152 -0.0995
0.0166 -0.8560 -0.2756
0.0409 -0.9707 -0.2791
-0.0577 -0.3529 -0.1730
-0.0912 -0.6603 0.1080
-0.2310 -0.4935 -0.2180
-0.1833 -0.5167 -0.0288
-0.1734 -0.5051 0.0950
-0.2380 -0.5443 0.1069
-0.2588 -0.5434 0.0722
-0.0594 -0.3158 0.2273
-0.0951 -0.5672 -0.1822
-0.0600 -0.2936 0.2140
-0.0532 -0.2944 0.2034
0.0482 -0.2678 -0.0283
-0.2386 -0.5547 -0.1714
-0.2464 -0.4783 -0.1872
-0.0877 -0.5370 -0.0410
-0.1029 -0.5563 -0.1793
-0.0510 -0.2759 0.1864
-0.0411 -0.1355 0.0455
-0.0223 -0.0483 -0.0149
0.0617 -1.0817 -0.2453
0.0593 -0.9484 -0.1907
0.0543 -0.9244 -0.2015
-0.1374 -0.9778 0.1859
0.0418 -0.8499 -0.2690
0.0457 -0.8732 -0.2853
-0.0140 -0.9353 -0.2281
0.0073 -0.9086 -0.1909
-0.1263 -0.9316 -0.3379
0.0243 -0.9397 -0.1943
-0.1360 -0.8689 -0.3853
-0.1171 -0.8956 -0.3003
-0.1161 -0.8902 -0.4227
0.0506 -0.2852 -0.0354
-0.1835 -0.5165 -0.0907
-0.1982 -0.5420 -0.0008
0.0505 -0.8770 -0.2760
-0.1304 -0.7539 -0.2542
-0.1073 -0.4889 -0.1382
-0.1727 -0.4670 -0.0360
-0.0430 -0.1381 0.0172
0.0030 -0.2145 -0.0839
-0.0779 -0.5435 -0.0259
-0.1208 -0.5394 -0.0100
-0.0512 -0.5563 -0.1140
-0.0251 -0.1050 -0.0421
0.0377 -0.9412 -0.3178
-0.2739 -0.5524 -0.0123
-0.1906 -0.5507 -0.1082
-0.2310 -0.5451 -0.1204
-0.2604 -0.5607 -0.0041
-0.1706 -0.5474 -0.0375
-0.2506 -0.5622 -0.0708
-0.2960 -0.5452 0.1577
-0.2308 -0.5458 0.0163
-0.2353 -0.5316 0.1099
-0.2680 -0.5613 0.0057
0.0149 -1.0158 -0.2032
-0.1436 -0.5367 0.0200
-0.2045 -0.5672 -0.0894
-0.2739 -0.5452 0.1241
-0.2421 -0.5605 -0.1486
-0.1578 -0.5542 -0.1663
0.0337 -1.0212 -0.2371
0.0258 -1.0335 -0.2942
0.0453 -0.2747 -0.0329
-0.1174 -0.6446 0.1126
0.1832 -0.6824 -0.0574
-0.2730 -0.5641 -0.0521
-0.2059 -0.5463 -0.0018
-0.2778 -0.5983 -0.0726
-0.2549 -0.5637 -0.1869
-0.1861 -0.5213 0.0972
-0.1078 -0.5488 -0.0595
0.0090 -1.0185 -0.3240
-0.4366 -1.0646 0.6594
-0.5081 -1.0020 0.7411
-0.3326 -1.1354 0.6930
-0.2681 -1.1311 0.6234
-0.3057 -0.5629 -0.1606
-0.2333 -0.8507 0.6575
-0.1632 -0.5618 -0.0879
-0.2226 -0.5568 -0.1293
-0.2164 -0.5549 -0.0800
-0.4033 -1.0794 0.6016
-0.4044 -0.6436 0.2444
-0.3098 -1.0751 0.7912
0.1480 -1.1392 -0.2368
-0.0445 -1.2634 0.6478
0.0190 -1.0631 -0.2102
-0.2200 -1.1735 0.6657
-0.1633 -0.5377 -0.0091
-0.6607 -0.6773 0.0400
-0.6524 -0.6853 0.0445
-0.6715 -0.7518 0.0274
-0.6443 -1.1482 -0.5781
-1.2816 -1.1895 0.1079
-0.9523 -1.1608 -0.2338
-1.5045 -1.1877 0.1334
-0.8321 -1.1398 -0.5432
-0.5510 -1.1266 -0.5893
-0.6432 -1.1097 -0.6260
-0.8733 -1.1320 -0.4229
-0.8522 -1.1176 -0.6613
-0.7992 -1.1331 -0.1718
-1.4955 -1.1609 0.4462
-0.6828 -1.1315 -0.3983
-1.0257 -1.1139 -0.2655
-1.2185 -1.1148 -0.5103
-0.7234 -1.1340 -0.1980
-1.9884 -1.2331 0.2388
-0.9066 -1.1111 -0.3707
-0.5869 -1.1177 -0.5481
-0.7605 -1.0922 -0.4905
-0.5664 -1.0996 -0.5905
-0.6413 -1.1202 -0.5705
-1.9907 -1.0799 0.0996
-0.5571 -1.1186 -0.6443
-1.2495 -1.1162 -0.3733
-1.5736 -1.1220 -0.3301
-0.6270 -1.1151 -0.7588
-0.5877 -1.1087 -0.7860
-0.6433 -1.1020 -0.7666
-0.8580 -1.0868 -0.6783
-0.5983 -1.1192 -0.8018
-0.5917 -1.1021 -0.8284
-0.6744 -1.0983 -0.8080
-0.7210 -1.1159 -0.8741
-0.8581 -1.1213 -0.8401
-0.7399 -1.0923 -0.8828
-0.7363 -1.1666 -0.9439
-0.9398 -1.0830 -0.8724
-0.8293 -1.0812 -0.5814
-0.8366 -1.1452 -0.5343
-0.5081 -1.1124 -0.6681
-1.6937 -1.0432 -0.2407
-1.5852 -1.1582 -0.5303
-1.2274 -1.1037 -0.4511
-0.7806 -1.0979 -0.9891
-0.9247 -1.1099 -0.3108
-1.5619 -1.1405 -0.3723
-1.2378 -1.1219 -0.8214
-2.0722 -1.1790 -0.5924
-1.2578 -1.1071 -0.8443
-0.9064 -1.1289 -0.6653
-0.8975 -1.1049 -0.2206
-0.7146 -1.0863 -0.1285
-0.6809 -1.1374 -0.1681
-1.2984 -1.2091 -0.4391
-1.4480 -1.1417 0.0125
-0.7089 -1.1245 -0.4916
-1.6860 -1.0091 -0.1945
-1.2100 -1.1568 -0.6006
-0.8286 -1.0882 -0.7979
-1.9033 -1.1078 0.0548
-1.1929 -1.1145 -1.0609
-0.8526 -1.0955 -1.0224
-0.8620 -1.0885 -0.9988
-0.7565 -1.0579 -0.9528
-0.7662 -1.0855 -0.9445
-0.8633 -1.1040 -0.9501
-1.2836 -1.1411 -0.9380
-0.9562 -1.1004 -0.8497
-1.1190 -1.0772 -0.8180
-1.3753 -1.1322 -0.5108
-1.2084 -2.0150 -0.5963
-1.3644 -1.1390 -0.5918
-0.8233 -1.1534 -0.7829
-1.9756 -1.0462 -0.5543
-0.9253 -1.1193 -0.7372
-0.8012 -1.1054 -0.7377
-1.2985 -1.1219 -0.4030
-1.2144 -1.0431 -0.5564
-1.4036 -1.0421 -0.0643
-1.3979 -1.0010 -0.1096
-1.7324 -1.1284 -0.1644
-1.5535 -1.0762 -0.4038
-1.3152 -1.0485 -0.5560
-1.3177 -1.1153 -0.6732
-1.3808 -1.1255 -0.8465
-1.0487 -1.1255 -0.8490
-1.5204 -1.0824 -1.0709
-1.4044 -0.8233 -1.1028
-1.5783 -1.0947 -0.1695
-1.9120 -1.1624 0.0983
-1.9664 -1.1514 0.0929
-2.0399 -1.2480 0.0857
-1.5836 -0.4329 -0.9658
-1.6391 -0.4453 -0.9162
-1.5457 -0.4599 -0.8809
-1.6883 -0.4589 -0.8960
-1.5376 -0.4123 -0.8743
-1.4256 -0.4274 -0.8451
-1.5913 -0.4201 -0.8687
-1.6575 -0.4517 -0.8581
-1.7329 -0.4652 -0.8550
-1.4261 -0.4246 -0.8046
-1.6958 -0.4483 -0.8391
-1.6199 -0.4250 -0.4281
-1.7012 -0.4501 -0.6859
-1.7624 -0.4615 -0.6918
-1.7522 -0.4493 -0.6697
-1.6449 -0.4496 -0.6428
-1.6689 -0.4588 -0.6500
-1.7977 -0.4739 -0.6387
-1.6680 -0.4218 -0.6400
-1.6056 -0.4504 -0.5916
-1.4739 -0.3963 -0.9057
-1.6229 -0.4550 -0.8544
-1.4526 -0.4176 -0.7929
-1.5128 -0.4296 -0.8065
-1.4690 -0.4240 -0.7715
-1.6184 -0.4611 -0.7163
-1.7047 -0.4484 -0.4572
-1.5186 -0.4274 -0.6296
-1.6298 -0.4187 -0.6326
-1.1754 -1.0021 -0.0898
-1.6890 -0.4687 -0.5789
-1.6886 -0.5331 -0.6939
-1.7183 -0.4677 -0.5811
-1.3210 -1.1331 -0.6436
-1.5293 -0.4252 -0.8077
-1.8074 -0.4588 -0.5666
-1.5853 -0.4215 -0.5281
-1.2433 -1.1221 -0.9678
-1.7641 -0.4733 -0.5163
-1.1714 -1.0265 -0.2533
-1.8116 -1.1750 -0.0170
-1.7542 -0.4704 -0.5584
-1.5798 -0.4142 -0.6269
-1.4795 -0.4104 -0.6514
-1.5723 -0.4559 -0.8471
-1.1126 -1.1298 -0.8939
-1.5721 -0.4807 -0.9820
-1.5237 -0.7608 -0.3003
-1.8571 -0.4471 -0.7004
-1.6850 -0.4433 -0.5525
-1.4301 -1.1386 -0.4080
-1.9247 -0.4605 -0.6957
-1.7191 -0.4625 -1.0498
-1.6133 -0.3979 -1.0117
-1.8203 -0.4407 -0.8012
-1.9304 -0.4674 -0.8557
-1.9228 -0.4734 -0.8839
-1.4188 -1.1462 -0.3841
-1.3852 -1.1457 -0.7616
-1.6932 -0.4373 -0.4722
-1.6629 -0.4481 -0.4847
-1.6037 -0.4715 -0.9443
-1.9187 -0.4569 -1.0342
-1.8590 -0.4180 -0.9036
-2.2205 -0.4964 -0.6094
-1.3880 -1.1578 -1.0798
-2.0148 -0.4541 -0.6153
-2.0732 -0.4515 -0.6470
-1.7943 -0.4356 -1.0736
-1.3793 -0.4083 -0.9260
-1.9259 -0.4581 -0.7026
-1.8937 -0.4088 -0.7518
-1.8386 -0.4675 -0.7120
-1.7352 -0.4580 -0.9374
-1.9892 -0.4386 -0.7578
-1.9260 -0.4531 -0.7769
-2.0770 -0.5101 -0.9007
-2.0045 -0.4616 -0.5595
-2.1181 -0.4564 -0.6175
-1.6718 -0.4835 -0.7461
-1.6265 -0.4581 -0.8927
-1.6892 -0.4528 -1.1586
-1.8643 -0.4631 -0.6828
-1.7015 -0.4137 -0.8055
-1.9594 -0.4760 -0.9909
-1.6667 -0.4375 -1.1990
-1.7261 -0.4400 -1.2280
-1.7629 -0.4286 -1.2395
-1.8768 -0.4924 -1.2448
-1.7335 -0.4671 -0.6319
-1.6825 -0.4349 -1.0240
-1.6640 -0.4577 -1.1787
-1.5771 -0.4584 -1.1181
-1.7192 -0.4513 -1.1808
-1.6940 -0.4430 -0.8326
-1.7718 -0.4314 -0.8278
-2.0305 -0.4602 -0.8418
-1.9536 -0.4741 -0.6616
-1.7758 -0.4029 -0.9635
-1.7965 -0.4523 -1.2013
-1.7450 -0.3893 -1.2115
-2.5012 -0.8323 -0.4082
-1.4237 -0.4569 -0.9909
-1.7358 -0.4734 -1.1299
-1.6124 -0.4630 -0.9593
-1.9637 -0.4589 -0.9501
-1.5750 -0.4667 -1.0903
-1.8126 -0.4630 -0.8822
-1.8659 -0.4723 -0.8546
-1.8075 -0.4624 -0.9304
-1.6953 -0.4668 -0.8538
-1.7129 -0.4538 -0.9943
-1.8586 -0.4437 -0.6992
-2.0965 -0.4488 -0.7290
-2.0225 -0.4552 -0.7832
-1.6089 -0.4628 -0.6523
-1.6553 -0.4191 -0.6341
-1.4504 -0.4608 -1.0409
-1.6287 -0.4538 -1.1915
-1.5207 -0.4559 -1.0879
-1.9169 -0.4763 -0.9160
-1.9283 -0.4595 -0.9292
-1.8230 -0.4624 -0.9224
-1.5103 -0.4540 -0.7630
-1.6285 -0.4035 -0.8722
-1.6584 -0.4246 -0.8197
-1.7631 -0.4233 -0.9410
-1.7091 -0.4219 -0.8587
-1.7890 -0.4439 -1.1382
-1.4632 -0.4075 -0.8634
-1.7763 -0.4200 -1.1050
-1.5648 -0.4210 -0.8716
-1.9425 -0.4679 -1.1516
-1.6071 -0.4306 -0.9627
-1.6594 -0.4776 -1.0163
-1.8484 -0.4251 -0.7702
-1.8921 -0.4548 -0.7005
-1.7697 -0.4489 -1.2038
-1.6436 -0.4582 -1.1199
-1.8106 -0.4541 -0.6751
-1.9796 -0.4699 -0.7900
-1.5656 -0.4702 -0.6593
-1.9374 -0.4309 -0.9296
-1.8577 -0.4550 -1.1717
-1.6018 -0.3932 -1.1570
-1.4590 -0.4555 -0.9619
-1.7067 -0.4535 -0.6305
-1.4191 -0.4465 -0.9791
-1.4833 -0.4609 -0.9823
-1.5649 -0.4648 -0.7824
-1.8578 -0.4184 -0.8888
-1.6364 -0.4537 -0.8149
-1.8798 -0.4334 -0.9944
-1.4230 -0.4669 -1.0368
-1.4898 -0.4621 -1.0193
-1.5890 -0.4660 -0.7902
-1.9715 -0.4615 -0.7100
-1.5832 -0.4240 -0.9967
-1.5211 -0.4524 -0.8219
-1.9393 -0.4142 -0.6700
-1.6069 -0.4693 -0.8074
-1.8833 -0.5157 -0.6949
-1.6513 -0.4597 -0.5981
-1.6242 -0.4645 -0.5600
-1.6114 -0.4638 -0.6311
-1.6607 -0.4665 -1.0522
-1.5816 -0.4732 -0.6893
-1.8387 -0.4490 -0.6307
-1.4614 -0.4646 -0.8795
-1.4489 -0.4491 -0.8967
-1.4197 -0.4123 -0.8766
-1.7400 -0.4548 -0.8499
-1.8204 -0.4592 -0.6679
-1.7234 -0.4585 -0.8989
-1.5870 -0.4177 -0.5736
-1.5741 -0.4236 -0.6011
-1.4917 -0.4680 -0.9733
-1.4787 -0.4585 -0.8374
-1.4409 -0.4170 -0.8393
-1.5204 -0.4620 -0.8267
-1.7263 -0.4584 -0.7319
-1.6490 -0.4386 -0.6568
-1.8047 -0.4534 -0.7611
-1.7398 -0.4652 -0.6332
-1.5153 -0.4575 -1.0140
-1.8277 -0.4604 -0.6203
-1.7354 -0.4553 -1.1570
-1.6137 -0.4550 -0.6240
-1.4470 -0.4322 -0.9028
-1.4470 -0.4219 -1.0067
-1.7371 -0.4605 -0.6092
-1.5655 -0.4586 -1.1611
-1.6082 -0.4545 -0.8697
-1.6188 -0.4162 -0.8598
-1.5913 -0.4700 -0.7783
-1.5150 -0.4652 -0.8640
-1.5699 -0.4658 -0.8687
-1.6076 -0.4538 -1.1399
-1.6587 -0.4697 -0.8445
-1.8555 -0.4233 -0.9312
-1.5737 -0.4657 -0.8629
-1.6382 -0.4440 -0.8310
-1.6751 -0.4597 -0.8372
-1.5038 -0.4622 -0.9923
-1.7327 -0.4560 -0.8895
-1.4870 -0.4682 -1.0086
-1.9707 -0.4247 -0.7097
-1.5770 -0.4540 -0.6426
-1.5470 -0.4260 -0.7373
-1.7370 -0.4757 -1.1626
-1.9455 -0.4470 -0.9148
-1.4611 -0.4569 -0.9116
-2.0452 -0.4614 -0.7234
-1.7716 -0.4460 -1.0007
-1.4830 -0.4192 -0.8449
-1.4290 -0.4693 -1.0501
-1.9174 -0.4570 -0.9872
-1.6386 -0.4526 -0.9644
-1.5608 -0.4682 -0.8299
-1.6263 -0.4224 -0.6952
-1.6061 -0.4633 -0.5288
-1.8489 -0.5018 -1.2733
-1.4400 -0.4581 -0.9334
-1.4295 -0.4331 -0.9317
-1.7355 -0.4062 -0.6045
-1.6425 -0.4160 -0.8409
-1.4990 -0.4568 -0.7891
-1.7555 -0.4584 -0.8197
-1.5489 -0.4534 -0.6669
-1.8930 -0.4229 -0.7520
-2.0209 -0.4504 -0.7226
-1.5760 -0.4665 -1.0638
-1.5350 -0.4702 -0.9412
-1.6187 -0.4608 -0.9899
-1.5422 -0.4661 -0.9273
-1.6233 -0.4522 -0.8358
-1.9016 -0.4499 -0.7473
-1.9029 -0.4508 -0.7087
-1.8677 -0.4679 -0.8307
-1.4840 -0.4491 -0.9138
-1.7849 -0.4790 -1.0684
-1.5253 -0.4562 -0.8915
-1.9235 -0.4524 -0.7747
-1.5939 -0.4648 -0.6969
-1.8170 -0.4303 -0.8065
-1.6505 -0.4335 -0.7287
-1.6536 -0.4477 -0.8552
-1.5755 -0.4523 -1.0038
-1.5496 -0.4632 -0.9967
-1.6016 -0.4632 -1.1298
-1.6009 -0.4666 -1.1119
-1.6347 -0.4622 -0.8593
-1.4709 -0.4716 -0.8807
-1.5069 -0.4673 -0.9697
-1.7198 -0.4612 -0.6935
-1.7304 -0.4681 -0.7080
-1.8892 -0.4777 -0.8129
-1.5868 -0.4447 -0.7904
-1.9653 -0.4549 -0.8895
-1.5151 -0.4719 -1.1136
-1.5332 -0.4727 -0.7859
-1.7050 -0.4528 -0.8332
-1.5511 -0.4595 -1.0962
-1.4045 -0.4539 -1.0225
-1.7707 -0.4506 -1.1829
-1.6159 -0.4561 -0.9449
-1.6200 -0.4561 -0.9311
-1.7397 -0.4616 -1.0943
-1.8336 -0.4733 -1.1400
-1.8540 -0.4622 -1.1248
-1.7042 -0.4626 -1.0641
-1.6997 -0.4594 -0.6431
-1.8656 -0.4518 -0.6873
-1.7268 -0.4565 -1.1267
-1.8839 -0.4721 -1.1374
-1.5484 -0.4357 -0.9225
-1.9064 -0.4349 -0.6727
-1.6662 -0.4609 -0.6193
-1.6611 -0.4352 -0.6707
-2.0843 -0.4680 -0.7859
-1.8293 -0.4535 -0.7873
-1.5942 -0.4700 -0.8134
-1.7393 -0.4579 -0.8547
-1.5421 -0.4657 -0.6967
-1.6733 -0.4752 -0.5445
-1.6043 -0.4640 -0.5517
-1.7622 -0.4680 -0.6475
-2.0292 -0.4825 -1.0104
-1.8142 -0.4674 -1.0421
-1.5081 -0.4660 -0.9075
-1.5631 -0.4641 -0.9279
-1.5850 -0.4716 -0.7567
-1.5378 -0.4682 -0.8417
-1.5277 -0.4697 -0.8006
-1.7204 -0.4754 -0.8745
-1.6262 -0.4608 -0.6425
-1.9000 -0.4753 -1.0453
-1.7796 -0.4594 -0.7118
-1.7384 -0.4503 -0.8669
-1.4610 -0.4609 -0.9691
-1.5075 -0.4596 -0.9082
-1.6312 -0.4187 -0.7357
-1.4755 -0.4607 -0.8459
-1.5981 -0.4202 -0.6955
-1.7884 -0.4417 -0.6061
-1.5551 -0.4646 -0.6498
-1.9300 -0.4800 -1.2247
-1.6502 -0.4625 -0.9399
-1.6113 -0.4471 -0.8314
-2.0162 -0.4665 -0.9823
-1.6238 -0.4627 -0.5536
-1.6090 -0.4603 -0.7198
-1.5789 -0.4379 -0.7313
-1.9111 -0.4448 -0.8771
-1.7326 -0.4590 -0.6941
-1.6922 -0.4672 -0.8091
-1.5165 -0.4713 -1.0850
-1.4489 -0.4478 -1.0157
-1.5271 -0.4640 -0.8755
-1.6045 -0.4694 -0.6150
-1.7732 -0.4659 -1.1252
-1.4939 -0.4198 -0.9437
-1.5487 -0.4541 -0.9209
-2.2020 -0.4887 -0.5575
-1.6070 -0.4493 -0.8495
-1.6353 -0.4388 -0.5750
-1.7851 -0.4345 -0.6210
-1.6316 -0.4561 -0.6174
-1.7872 -0.4169 -0.6721
-1.6077 -0.4660 -1.1288
-1.6622 -0.4371 -1.1592
-1.4399 -0.4452 -1.0003
-1.6198 -0.4561 -1.0859
-1.6886 -0.4209 -0.8688
-1.5237 -0.4589 -0.8445
-1.6911 -0.4512 -1.0925
-1.4326 -0.4469 -0.9464
-1.8152 -0.4298 -0.9778
-1.6224 -0.4661 -1.0039
-1.9813 -0.4568 -0.7138
-1.6863 -0.4626 -0.5783
-1.5655 -0.4195 -0.6363
-2.0407 -0.4639 -0.7616
-1.7210 -0.4605 -0.7539
-1.7637 -0.4600 -0.7605
-1.6587 -0.4267 -0.9847
-1.6993 -0.4600 -1.1126
-1.7740 -0.4523 -0.5887
-1.5979 -0.4599 -0.5467
-1.5348 -0.4524 -0.8618
-1.5482 -0.4236 -0.7967
-1.6976 -0.4635 -0.9012
-1.8375 -0.4320 -0.9614
-1.5474 -0.4344 -0.8941
-1.6740 -0.4554 -1.0194
-1.6982 -0.4724 -1.0578
-1.6627 -0.4423 -0.9149
-1.6283 -0.4557 -0.5712
-1.6189 -0.4629 -0.6019
-1.9439 -0.4495 -0.7599
-1.8608 -0.4331 -0.7011
-1.9850 -0.4671 -0.9660
-2.0153 -0.4630 -0.6496
-1.7357 -0.4466 -1.0172
-1.6306 -0.4511 -0.8732
-1.4711 -0.4409 -0.9618
-1.5425 -0.4569 -0.9754
-1.5634 -0.4200 -0.6254
-1.5123 -0.4752 -0.9282
-1.5899 -0.4201 -0.6686
-1.4481 -0.4564 -0.9647
-1.7552 -0.4390 -0.7785
-1.5233 -0.4595 -1.0454
-1.4738 -0.4652 -0.9080
-1.6832 -0.4599 -1.0537
-1.7070 -0.4638 -1.0149
-1.6162 -0.4427 -0.7168
-1.5860 -0.4563 -0.7181
-2.0492 -0.5911 -1.0343
-1.7550 -0.4728 -1.1577
-1.5643 -0.4567 -0.9394
-1.4794 -0.4655 -1.0270
-1.7429 -0.4626 -0.6927
-1.6660 -0.4601 -0.9355
-1.7823 -0.4661 -0.6213
-1.6851 -0.4610 -0.8650
-1.6377 -0.4773 -1.1140
-1.9705 -0.4738 -0.9788
-1.5891 -0.4657 -1.0590
-1.7909 -0.4539 -0.7761
-1.6593 -0.4243 -1.0111
-1.8093 -0.4721 -1.1130
-1.9836 -0.4766 -1.0927
-2.0132 -0.4611 -0.9716
-1.9347 -0.4495 -0.6294
-1.5456 -0.4537 -0.6939
-1.6895 -0.4718 -0.7790
-1.6802 -0.4548 -0.8255
-1.9625 -0.4666 -1.0883
-1.8992 -0.4410 -1.0730
-1.6912 -0.4609 -0.6238
-1.7502 -0.4751 -0.9275
-1.7840 -0.4743 -1.2208
-1.4643 -0.4604 -0.8670
-1.8058 -0.4625 -1.1717
-1.4700 -0.4666 -0.9734
-1.5099 -0.4683 -0.9575
-1.4887 -0.4701 -0.9098
-1.6372 -0.4200 -0.9091
-1.7107 -0.4562 -0.9070
-1.6716 -0.4557 -0.5419
-1.6190 -0.4648 -0.5718
-1.7165 -0.4693 -0.8194
-1.8442 -0.4549 -0.7022
-1.6511 -0.4546 -0.7240
-1.7785 -0.4480 -0.9343
-1.7765 -0.4085 -0.9181
-1.6019 -0.4640 -0.7276
-1.8079 -0.4270 -0.8761
-2.0849 -0.4428 -0.6206
-1.8334 -0.4526 -0.7814
-1.5975 -0.4588 -0.6854
-1.6154 -0.4677 -1.0870
-1.8054 -0.4182 -0.7168
-1.5416 -0.4615 -0.6820
-1.5954 -0.4524 -0.7582
-1.5838 -0.4608 -0.8288
-1.5073 -0.4871 -1.0517
-1.4207 -0.4440 -0.9734
-1.9269 -0.4627 -1.1902
-1.9720 -0.4553 -0.6813
-1.6298 -0.4273 -1.0180
-1.6309 -0.4586 -0.6912
-1.6520 -0.4602 -0.9325
-1.7254 -0.4193 -0.9371
-1.9614 -0.4184 -1.0097
-1.5354 -0.4691 -0.8122
-1.6083 -0.4577 -0.7542
-1.8483 -0.4106 -0.6715
-1.9365 -0.4501 -0.6471
-1.4561 -0.4523 -0.9281
-1.5589 -0.4598 -0.7833
-1.5396 -0.4523 -0.6911
-1.9520 -0.4213 -0.7550
-1.7215 -0.4127 -0.6808
-1.6242 -0.4499 -0.5482
-1.5799 -0.4708 -0.7469
-1.7945 -0.4521 -0.8142
-1.5320 -0.4589 -0.8521
-1.5880 -0.4310 -0.6075
-1.4945 -0.4172 -0.9544
-1.7325 -0.4705 -1.1404
-1.5163 -0.4641 -0.7654
-1.5392 -0.4696 -0.7863
-1.7494 -0.4737 -0.9257
-1.7718 -0.4396 -0.9703
-1.5307 -0.4533 -0.7067
-1.4635 -0.4723 -0.8788
-1.4024 -0.4544 -1.0140
-1.4345 -0.4562 -1.0308
-1.6715 -0.4549 -0.6404
-1.4656 -0.4612 -1.0344
-1.8180 -0.4493 -0.9496
-1.8080 -0.4599 -1.0003
-1.5619 -0.4535 -0.9477
-1.4492 -0.4676 -0.9060
-1.8319 -0.4605 -0.6333
-1.7440 -0.4670 -0.8651
-1.4942 -0.4640 -1.0369
-1.6367 -0.4605 -1.0521
-1.6518 -0.4598 -1.1005
-1.7243 -0.4618 -0.8165
-1.5814 -0.4743 -0.6373
-1.7649 -0.4711 -1.1265
-1.5081 -0.4720 -0.9738
-1.8039 -0.4567 -1.0364
-1.6807 -0.4666 -0.5263
-1.8559 -0.4610 -0.6720
-1.5710 -0.4586 -0.6473
-1.6669 -0.4596 -0.9590
-1.8496 -0.4576 -0.5585
-1.4173 -0.4012 -0.9741
-1.5223 -0.4713 -0.9801
-1.4452 -0.4496 -0.9205
-1.4767 -0.4566 -0.8819
-1.4958 -0.4652 -0.8855
-1.7613 -0.4598 -0.7369
-1.7366 -0.4568 -0.7745
-1.7677 -0.4521 -0.7954
-1.6479 -0.4542 -0.6742
-1.5721 -0.4639 -0.8419
-1.6030 -0.4603 -0.8812
-1.5575 -0.4502 -0.6437
-1.5042 -0.4672 -0.8953
-1.6201 -0.4353 -0.7436
-1.4418 -0.4516 -0.9345
-1.5877 -0.4355 -0.9760
-1.7513 -0.4678 -0.8039
-1.4912 -0.4774 -0.9093
-1.8703 -0.4149 -0.9182
-1.7655 -0.4610 -0.9034
-1.5505 -0.4205 -0.8253
-1.7241 -0.4129 -0.6256
-1.5596 -0.4641 -0.6411
-1.5027 -0.4202 -0.8480
-1.5224 -0.4500 -0.9990
-1.6856 -0.4622 -0.6018
-1.6901 -0.4148 -0.6390
-1.5820 -0.4628 -0.6360
-1.6100 -0.4333 -0.9905
-1.5195 -0.4620 -0.9281
-1.6707 -0.4324 -0.5373
-1.7037 -0.4502 -0.9485
-1.6060 -0.4528 -0.5226
-1.8294 -0.4592 -0.9436
-1.9269 -0.4567 -1.0079
-1.8541 -0.4532 -0.9700
-1.5257 -0.4519 -0.9268
-1.8894 -0.4560 -0.8727
-1.7265 -0.4685 -0.5917
-1.7285 -0.4596 -0.5691
-1.7392 -0.4695 -1.1561
-1.6456 -0.4325 -0.8284
-1.6437 -0.4692 -0.9968
-1.6091 -0.4459 -0.7103
-1.7685 -0.4241 -1.0235
-1.9484 -0.4654 -0.8177
-1.4306 -0.4596 -0.9528
-1.5437 -0.4624 -0.9760
-1.6415 -0.4571 -0.6887
-1.4954 -0.4638 -0.9950
-1.5907 -0.4449 -0.7181
-1.6082 -0.4523 -1.0404
-1.5894 -0.4627 -0.7573
-1.6810 -0.4817 -1.0628
-1.5800 -0.4479 -0.7712
-1.5157 -0.4617 -0.9601
-1.5141 -0.4455 -0.7562
-1.4693 -0.4823 -0.9358
-1.6875 -0.4684 -1.0323
-1.6832 -0.3832 -0.8377
-1.5297 -0.4499 -0.7991
-1.7225 -0.4579 -0.9287
-1.6532 -0.4691 -0.9134
-1.6213 -0.4517 -0.7119
-1.4916 -0.4290 -0.9346
-1.7474 -0.4567 -0.9611
-1.5721 -0.4376 -0.6194
-1.6069 -0.4679 -0.9763
-1.4247 -0.4611 -0.9763
-1.9758 -0.4460 -0.9443
-1.9806 -0.4530 -1.0413
-1.7100 -0.4672 -0.5360
-1.7555 -0.4401 -0.5566
-1.5051 -0.4321 -0.9350
-1.4730 -0.4184 -0.8581
-1.6504 -0.4288 -0.9143
-1.5499 -0.4177 -0.6650
-1.6741 -0.4581 -0.7827
-1.5383 -0.4561 -0.7694
-1.5708 -0.4566 -0.9368
-1.7234 -0.3929 -0.9820
-1.4412 -0.4449 -0.9254
-1.5690 -0.4655 -0.8019
-1.5570 -0.4275 -0.7415
-1.5142 -0.4616 -0.7506
-1.5264 -0.4551 -0.7208
-1.6415 -0.4563 -0.5559
-1.6241 -0.4398 -0.5152
-1.4849 -0.4564 -0.8229
-1.9048 -0.4229 -0.5573
-1.6032 -0.4434 -0.5203
-1.6710 -0.4216 -0.9475
-1.7012 -0.4202 -0.6125
-1.4828 -0.4539 -0.9664
-2.0509 -0.4437 -0.8417
-1.8518 -0.4521 -0.6705
-1.6199 -0.4510 -0.6548
-1.5954 -0.4670 -0.9358
-1.5340 -0.4347 -0.8746
-1.7491 -0.4449 -0.7379
-1.9468 -0.4495 -0.7308
-1.8893 -0.4131 -1.0432
-1.6713 -0.3835 -0.6333
-1.4801 -0.4318 -0.8361
-1.4533 -0.4237 -0.9063
-1.4845 -0.4380 -0.8701
-1.5980 -0.4021 -0.8637
-1.6819 -0.4587 -0.6078
-1.9773 -0.4488 -0.6324
-1.5296 -0.4420 -0.7145
-1.6204 -0.4248 -0.5634
-1.7252 -0.4462 -0.6365
-1.8426 -0.4508 -0.7016
-1.4773 -0.4266 -0.9542
-1.8293 -0.4445 -1.0976
-1.7020 -0.4684 -0.8983
-1.6294 -0.4151 -0.5221
-1.6847 -0.4126 -0.7446
-1.6383 -0.4087 -0.8110
-1.8346 -0.4208 -0.8426
-1.8920 -0.4095 -0.9521
-1.6038 -0.4585 -0.6085
-1.7029 -0.4284 -0.5236
-1.8341 -0.4461 -0.5656
-1.7864 -0.4140 -0.5803
-2.0237 -0.4345 -0.7121
-2.0173 -0.4605 -0.7339
-1.5553 -0.4251 -0.6497
-1.4620 -0.4042 -0.8825
-1.7766 -0.4361 -1.0540
-1.4966 -0.4284 -0.8502
-1.7293 -0.4216 -0.6907
-1.7747 -0.4340 -0.7641
-1.8033 -0.4155 -0.9020
-1.6471 -0.4272 -0.8972
-1.6306 -0.4281 -0.9258
-1.6588 -0.4279 -0.7138
-1.8040 -0.3933 -0.7720
-1.6966 -0.4312 -0.8286
-2.0580 -0.4399 -0.7125
-1.5500 -0.4322 -0.9533
-1.6034 -0.4286 -0.5265
-1.5855 -0.4308 -0.7973
-1.7325 -0.4201 -0.6594
-1.8846 -0.4152 -0.6579
-1.6553 -0.4030 -0.5217
-1.8883 -0.4200 -0.6866
-1.5160 -0.4340 -0.9578
-1.4987 -0.4238 -0.8842
-1.6609 -0.4267 -0.9200
-1.5986 -0.4286 -0.7336
-1.5983 -0.4186 -0.7233
-1.6049 -0.4198 -0.7481
-1.5781 -0.4368 -0.7424
-1.6893 -0.4220 -0.9846
-1.8218 -0.3430 -0.9476
-1.6803 -0.4247 -0.9756
-1.7529 -0.4281 -0.7265
-1.6871 -0.4053 -0.6142
-1.8990 -0.4194 -0.8641
-1.8718 -0.4218 -0.8583
-1.8761 -0.4312 -1.1599
-1.6581 -0.4243 -0.6090
-1.9010 -0.4248 -0.9765
-1.6427 -0.4595 -0.6877
-1.8340 -0.4138 -0.6444
-1.6039 -0.4294 -0.8460
-1.5162 -0.4294 -0.7457
-1.5164 -0.4251 -0.9086
-1.5082 -0.4225 -0.8800
-1.6168 -0.4144 -0.8300
-1.5729 -0.4259 -0.8286
-1.5313 -0.4385 -0.8202
-1.4894 -0.4242 -0.8192
-1.5744 -0.4443 -0.6023
-1.7125 -0.4399 -0.7255
-1.7224 -0.4706 -0.8007

