18.1814 -13.0691 0.3849
2.4410 -2.4580 -0.2443
8.8535 -6.6148 -3.5581
9.0075 -6.9719 -3.2309
9.3541 -7.2517 -3.1187
5.8179 -5.3820 -1.0006
29.2887 -22.1768 -3.8436
18.8796 -13.1577 -0.8977
19.3322 -14.2313 0.2225
17.9666 -26.8045 1.9557
2.0047 -3.5738 -0.3597
12.5822 -9.4939 -3.1311
14.3014 -10.6255 -3.2338
10.7146 -7.4614 -3.4727
22.9929 -17.8855 4.5347
4.5749 -4.7515 1.6976
51.1710 -37.7760 3.2588
9.6149 -10.6119 -2.5026
12.3871 -13.2738 -1.3412
9.9354 -7.1095 -3.2265
8.7172 -6.7065 -2.6558
8.9981 -6.9379 -2.4964
37.0708 -53.4089 -27.2712
29.8702 -42.4767 -17.2210
11.1242 -11.3875 -3.4136
33.5508 -22.9713 -11.5279
26.2459 -19.1473 -1.2024
34.4998 -48.8888 -30.1937
26.8946 -18.7345 -5.0633
2.9486 -6.1453 -0.5970
1.9134 -5.3552 -0.5360
1.9968 -3.4744 0.4908
3.1021 -3.9346 0.4364
15.4289 -11.8044 -1.3406
2.8971 -3.9051 0.6225
2.6056 -4.0767 0.6022
2.5401 -4.0806 0.8176
32.2507 -49.3251 -26.8025
22.7097 -34.9502 -14.7052
49.3451 -53.2675 3.0824
34.7694 -52.0508 -32.0591
9.0979 -25.3011 -8.4086
3.6337 -6.1709 -0.9796
36.8781 -64.4069 -13.8575
2.2760 -4.6495 -0.1943
2.5584 -3.9085 -0.0232
1.6112 -2.9862 0.4703
1.4588 -3.2785 0.7217
11.0449 -17.7184 -3.4917
2.6196 -6.0445 -1.0297
9.6208 -14.1895 -5.0682
2.4914 -6.7633 -2.0333
7.0620 -10.2133 -1.3342
2.2686 -6.4222 -1.9078
3.1079 -4.9211 -0.3557
1.6301 -3.2947 0.5575
22.3711 -69.8135 -42.3307
6.2438 -9.3966 -2.4154
38.5948 -60.6282 -15.0128
3.9077 -5.7983 -0.5663
40.8404 -56.7850 -10.9118
14.0596 -17.8559 -1.4040
6.6637 -16.7346 -5.8543
17.9113 -82.0253 8.5226
15.4224 -12.4976 3.8858
4.0837 -9.6044 -1.9007
3.7798 -10.2837 -1.6326
6.6725 -16.6751 0.1407
22.3429 -43.3423 -10.0741
40.5965 -57.6783 -16.6835
17.1188 -24.9585 -6.0860
10.2032 -15.8831 -4.9037
10.1749 -16.0416 -4.9448
10.9381 -23.1769 -5.4379
11.1402 -9.4668 -0.8031
30.6285 -45.7448 -1.7327
2.4846 -8.0684 -0.9343
11.7232 -15.6152 1.5759
3.3780 -3.8161 1.0534
26.5319 -36.2614 -8.7065
10.5211 -14.5830 3.6318
3.9558 -20.6698 2.0822
5.1096 -19.7537 2.7210
10.6654 -14.7214 -0.3217
22.2467 -17.3152 7.5917
11.2216 -14.8334 -2.2288
31.3766 -27.5503 9.2604
36.6221 -61.8839 -19.1602
36.0817 -57.6771 10.2383
13.8266 -20.9760 1.4145
13.7435 -11.1039 3.7253
14.0272 -11.4480 2.6243
25.2219 -34.6501 4.7353
22.3071 -33.4454 -19.9981
11.1137 -7.9096 -1.9388
8.8510 -15.9995 0.2123
14.6577 -23.8164 -10.9948
2.9830 -4.6460 1.6578
42.8273 -52.7100 -14.5771
41.2294 -61.4626 -9.5153
15.9936 -14.5778 4.6086
3.7977 -19.6861 -6.2325
8.1280 -19.8634 -6.4579
9.3253 -21.3975 -7.1220
6.5908 -21.0150 -5.2145
10.1445 -19.1800 -6.1242
8.6185 -14.5777 4.0385
13.4187 -23.6333 6.1375
13.0554 -14.4537 5.5844
22.6549 -18.5799 9.2694
17.4141 -81.7968 11.3597
19.2794 -29.6506 -15.0458
38.6497 -47.1272 -27.1815
11.9701 -23.6142 -7.7855
9.0138 -17.1241 -1.9885
34.6473 -66.6682 -14.8649
12.8545 -22.2789 -1.3275
9.2705 -8.2513 1.1514
13.1266 -10.1139 0.9226
5.1362 -14.4935 1.2278
35.6687 -53.9543 1.5086
11.2947 -15.2050 -2.7090
9.4820 -13.8644 -7.4501
26.0885 -17.7561 -10.4808
9.5413 -17.0655 -5.3145
11.8235 -8.6221 -2.5100
14.0591 -10.7575 1.7569
17.3486 -19.0732 6.2610
16.2178 -12.0718 6.0246
3.2070 -12.9623 3.6325
30.3274 -44.1716 -6.6403
9.0869 -14.8819 -7.9469
10.5818 -17.3010 -8.2116
30.3421 -44.4687 5.3329
20.8560 -33.4440 -0.7924
19.4217 -13.3191 -2.2418
14.2288 -11.0278 -0.6317
14.6131 -10.6451 -1.5600
19.8500 -14.6813 -0.4976
13.2684 -8.9884 -5.8203
11.1133 -13.9491 -4.1667
11.1620 -14.6060 4.2500
15.6320 -17.7647 -10.6017
12.7379 -43.3669 -8.3501
20.1225 -78.8297 -12.3210
24.6158 -27.4048 2.5403
15.3284 -81.9110 2.0445
5.2268 -16.6090 -5.2105
24.4304 -43.9082 -4.0737
14.3322 -22.3590 2.8886
12.3900 -52.7651 4.8429
13.8150 -24.5291 7.1937
20.8932 -75.4962 -25.2139
8.4730 -31.8853 -2.6151
39.8522 -68.0259 -0.0981
14.1142 -14.9977 4.6973
2.6777 -6.7361 0.5618
6.7781 -17.2043 -5.3952
3.1308 -4.6699 1.6887
14.6701 -82.1607 8.0107
2.0602 -4.5927 1.0361
17.1144 -77.3090 -19.0268
3.6131 -6.8608 -0.1271
12.5157 -43.4599 -6.5592
11.5551 -15.5299 2.6647
15.5491 -29.0027 8.9331
13.1211 -21.2453 6.6453
9.3187 -15.2156 3.8471
18.0195 -77.3582 -26.0018
9.3510 -13.6060 -5.5956
22.0924 -67.8559 -44.6482
6.9688 -16.7654 -3.7201
12.5885 -16.9481 5.3728
11.9492 -8.7858 -3.3687
17.2665 -67.5843 -34.1631
8.6236 -22.2080 -7.4239
41.7192 -37.9119 -18.2582
10.5604 -16.2848 -2.0807
18.7659 -18.6443 1.8454
8.4972 -26.1203 0.2909
36.1565 -28.7224 4.2238
2.4185 -4.5728 1.3909
9.4792 -24.0433 -12.4109
5.2997 -14.6557 3.6116
13.3440 -8.9626 -3.9261
18.8108 -80.8178 -0.5860
8.6842 -15.9409 2.4868
7.0742 -13.1536 0.6252
10.9868 -15.5397 0.9311
21.1890 -74.9306 -28.6069
21.3345 -16.4153 1.5517
15.0860 -11.6611 0.8183
13.6779 -21.7845 -1.1825
39.0218 -63.2778 -10.1873
41.0453 -59.1307 -14.3510
11.8357 -16.9002 -1.0729
24.5936 -19.8150 6.5188
14.6057 -10.9870 -1.1802
17.5808 -11.8447 -6.5646
16.1619 -10.4376 -5.5672
31.5365 -39.4369 -13.5096
12.6725 -8.7199 -4.6524
17.9049 -26.5351 1.0346
13.8433 -9.7197 -3.9036
12.0213 -8.0372 -4.9188
13.8356 -12.6645 -2.8649
3.9158 -17.4279 -0.6011
5.5296 -18.4858 1.9987
1.6125 -12.0112 2.7066
11.2436 -9.6804 -4.8916
9.1982 -12.5396 -5.5442
36.9885 -47.2770 -32.6095
18.4422 -81.0440 2.5056
16.4710 -12.7325 -4.1630
7.9377 -17.0463 3.0460
12.0040 -11.0459 -1.5250
15.5972 -12.0251 -0.8324
8.1897 -25.9363 -0.4580
25.1079 -42.3024 -3.7294
15.9899 -17.5630 -7.0997
37.9337 -50.7003 -25.4288
13.7433 -10.3364 -5.7654
2.5398 -4.5159 0.2512
9.2715 -14.1428 -6.1968
11.1330 -8.1277 -4.2651
8.1019 -24.8590 -8.5942
13.1673 -21.7120 -7.5675
17.1439 -12.2243 5.2055
13.9839 -16.9528 -10.5493
15.6214 -18.9213 -11.3449
10.9517 -17.6118 -5.1065
12.3779 -22.2554 -6.1016
15.6572 -20.3614 -5.1510
13.3790 -18.3719 -4.2839
16.1312 -14.6308 2.9777
6.0048 -14.9301 -0.1980
15.5477 -12.8947 1.3781
19.9620 -15.8408 0.7908
18.3262 -23.6877 -0.2376
15.4198 -21.5409 -0.2139
20.8990 -25.9277 -2.9489
10.5101 -13.0664 -1.7729
33.9846 -49.6038 -35.9353
9.7706 -19.0537 1.4742
5.9132 -25.1403 3.5996
23.4154 -32.9373 -20.1763
28.8011 -53.3831 5.0065
22.9845 -17.0660 0.8153
16.9827 -24.1147 -7.9779
13.4994 -22.6120 -5.3548
17.6193 -23.8896 -5.6426
14.2947 -22.1178 -5.1651
33.9828 -48.2123 -6.0686
9.3096 -15.1772 -3.8048
14.8195 -19.2980 -11.4809
18.1574 -26.9898 -17.5269
21.7757 -20.9423 -0.9750
24.6637 -20.1292 7.3851
25.0490 -30.7371 -17.2750
21.8556 -63.9894 -29.4465
11.7840 -16.6960 3.7041
3.0849 -20.7917 -5.4601
7.3196 -17.4632 5.8423
17.6551 -28.5286 6.3199
7.8088 -19.5753 2.7471
6.5494 -18.3851 0.2060
16.5066 -19.9819 5.4868
12.4385 -11.8855 -7.2897
33.4309 -48.1526 -37.6628
6.8446 -18.7834 -5.2133
10.0657 -19.2394 -5.6994
11.1217 -17.4240 -2.8571
18.5794 -17.6460 -1.4270
8.0792 -18.9080 2.3208
6.5102 -23.1482 1.8704
36.1073 -69.7879 7.9313
5.9321 -16.9432 3.6124
2.2377 -18.2086 3.2617
6.3735 -18.1275 4.4349
6.2398 -17.9093 5.0261
4.8933 -17.6790 4.6463
8.5269 -18.0215 -1.6200
9.2230 -17.7269 -9.3752
9.3710 -16.9394 6.4007
8.6585 -17.2236 6.5770
13.6419 -20.7258 -12.6840
23.1315 -43.1117 12.0115
5.8621 -17.3778 4.9858
16.9947 -26.0998 5.7940
15.7424 -18.0238 -9.9258
10.1757 -16.0605 -7.2776
12.1396 -22.7471 -10.8351
37.0861 -62.3032 8.0838
8.6359 -18.0846 3.5463
23.1673 -18.2350 5.3596
2.4418 -5.5505 -0.7702
14.9961 -21.9869 3.8021
11.3728 -21.4735 -9.0531
15.8446 -21.2123 -8.9651
10.4279 -25.3987 -1.2450
9.1451 -18.4728 0.3313
13.5023 -24.2700 -0.8753
17.4737 -19.8110 -5.9988
8.5863 -20.3590 -1.6539
12.0955 -22.6930 -2.3856
21.4221 -19.9806 -1.7149
14.0472 -21.9638 8.3299
15.3357 -12.2546 -0.2647
20.5737 -17.7247 -1.2412
15.8147 -16.7495 -10.7872
24.9327 -17.4344 -9.0566
18.5716 -13.8817 -7.2961
24.2712 -42.5788 6.0448
17.2717 -28.0626 8.8742
9.2782 -22.9935 1.2962
15.9420 -27.2152 1.6085
20.8265 -15.1955 -3.6440
32.8423 -55.3125 15.7464
8.5062 -23.5519 1.0170
14.0327 -12.0769 -6.3095
16.7452 -18.4599 -1.9367
28.8978 -48.2042 12.1663
16.7268 -19.7737 -2.3148
20.2622 -14.0514 -3.9089
15.0297 -20.3465 3.8053
15.9725 -12.9648 -8.4462
18.1454 -15.7829 -3.9088
16.3143 -20.0854 -4.1504
9.7642 -17.4585 4.2431
15.8924 -18.3347 -9.2707
10.4071 -23.8675 -13.7119
10.6012 -30.3941 -13.5351
9.1311 -24.0702 -8.0176
28.3231 -34.6481 11.8411
25.3529 -31.1772 12.0157
37.5356 -72.9528 20.8353
29.1649 -48.4368 15.4024
24.7160 -21.6609 9.3642
26.6224 -22.5283 9.8353
17.6394 -15.7142 -5.8728
22.3150 -37.6443 -16.7210
9.4911 -23.0881 -0.4655
14.2043 -23.0100 1.1198
9.3599 -23.0481 0.4435
12.4465 -21.8239 1.2596
12.9051 -21.9350 2.2239
7.0447 -20.3515 2.1597
8.0214 -25.2910 1.3960
17.7611 -19.1107 4.8175
23.8838 -18.4470 7.0539
20.0030 -15.1996 6.9104
49.7987 -61.4400 17.2396
8.7728 -20.3179 6.4071
14.0124 -20.8035 -6.9364
13.1475 -21.7165 3.1464
9.5143 -16.9363 -8.1805
14.0705 -26.0834 8.3550
14.1157 -19.9039 -10.6354
15.5866 -17.5928 -11.3476
18.7083 -36.8945 -25.2380
11.5484 -23.3974 -13.4289
12.9952 -21.8361 -12.5498
39.9736 -69.2673 15.7729
17.1529 -10.8534 -7.1599
9.2380 -24.7526 4.9157
18.0829 -18.4102 7.1145
14.5581 -19.0243 -10.2393
17.8010 -35.0744 -21.7881
15.3559 -18.8536 -10.4091
13.2032 -21.1966 5.9359
17.6239 -27.9250 6.9634
10.8117 -21.9551 -9.9971
10.5833 -24.4277 -11.8160
10.3902 -18.8360 -8.1792
11.3402 -23.8866 -10.5046
12.2548 -23.9047 4.4292
15.8703 -11.3295 -4.9225
26.8266 -18.9596 -7.7545
23.8812 -80.8080 15.2323
12.6808 -29.3132 -9.4174
26.0891 -38.4114 3.2585
20.8537 -15.7412 3.5706
9.2983 -22.4204 -4.9073
23.1570 -78.1117 -8.4562
24.3453 -36.5251 -0.9594
10.5866 -24.4040 -3.9144
12.1533 -27.4426 7.4194
22.8879 -17.8005 0.6967
10.5862 -25.4298 -2.2907
47.7219 -43.2602 -4.5477
21.4106 -19.4732 0.2842
18.2343 -16.8113 0.5448
16.0890 -16.4126 7.1887
19.8070 -15.5464 0.0629
17.8106 -12.6828 -6.4172
13.6464 -22.0809 -8.6635
22.7587 -18.8687 10.1550
16.6456 -14.1405 -4.0041
10.7935 -19.6181 1.8392
11.9430 -23.8365 1.2856
16.6591 -17.5694 -4.9171
17.1498 -13.2702 -8.1508
17.3011 -12.1273 -7.3956
5.6205 -20.3270 2.5921
18.6741 -23.6874 -0.5131
6.0586 -22.8522 3.6163
15.3439 -20.4093 7.5822
9.6718 -25.1996 -14.7341
13.1320 -17.8435 -10.7302
16.7667 -10.4146 -5.7082
10.3161 -18.0479 -6.2874
7.6559 -20.1433 -6.6324
14.7109 -20.7900 -7.6838
40.8007 -39.3083 -20.6395
15.6743 -17.4050 -6.2984
10.3677 -22.5884 -7.6485
8.2807 -23.3613 -7.5363
14.7395 -21.5516 -6.4007
14.7707 -21.8683 -5.5026
23.4122 -37.3528 -8.6788
18.4635 -17.3714 -2.1338
20.6990 -14.0084 -1.0478
18.2082 -24.2588 -2.9982
7.6548 -20.2457 -0.9124
8.0968 -23.5646 -0.1589
20.2711 -16.7381 2.8514
17.4828 -18.4769 3.3244
10.8541 -25.3237 2.1253
17.3015 -18.2118 3.9997
31.5199 -38.0863 8.5964
2.5143 -23.0546 3.4693
15.6365 -18.9985 8.6582
11.4198 -19.5872 -10.9011
12.5907 -22.4495 5.9013
10.0853 -17.5018 -8.3948
7.8422 -22.0397 6.3414
10.5025 -21.9368 6.2507
10.9506 -20.7144 -10.6404
16.1541 -10.6600 -7.4965
17.5373 -16.9432 8.8333
20.5154 -30.0857 -21.8162
21.4535 -49.1343 11.5340
19.1623 -12.3704 -7.8727
16.1718 -17.3710 -9.5676
16.3161 -17.6715 -8.9395
10.3257 -17.5381 -7.4397
10.8677 -25.7078 -11.6556
19.4454 -18.5664 5.8008
26.4842 -75.4566 -11.0964
10.8073 -18.3829 -5.1962
16.5660 -29.8299 -10.8855
14.2861 -11.7288 -2.8718
18.9116 -16.5044 4.8383
11.5932 -30.2062 -9.7722
8.8537 -8.5738 2.6384
13.3294 -21.4669 -5.7028
18.2162 -13.5361 -3.0223
11.2443 -22.3170 -5.0649
18.3972 -13.8024 -2.4248
19.5897 -15.2849 4.1643
21.6832 -16.4429 -2.4408
14.5090 -20.6564 -3.4481
19.9438 -17.0591 -1.9088
21.5812 -17.2321 3.5871
2.7523 -6.8733 0.2721
13.1855 -37.9697 -6.7963
12.3624 -24.7368 0.0026
22.4100 -17.9259 -10.3291
20.0858 -16.1127 1.5364
21.8844 -19.1198 1.3054
36.7420 -31.3702 -19.0425
18.0847 -22.3018 -1.2154
17.7172 -19.8282 -9.6708
18.4313 -16.8260 9.0097
8.9497 -23.1215 -8.5637
18.7329 -15.3563 0.0376
19.6021 -15.2539 -6.4957
17.9407 -14.3608 -5.8555
18.0390 -17.7251 5.5836
15.7828 -12.9149 -7.7521
16.3701 -21.2263 4.7285
20.2940 -15.3760 -4.5629
13.6538 -20.4391 -5.2713
17.8768 -14.6819 -3.4666
19.8885 -20.7749 4.2559
20.2099 -16.6915 -3.3790
18.9005 -15.9117 -2.3517
18.8086 -15.7977 2.4184
24.1644 -66.8769 -37.0122
20.5909 -15.8878 2.4058
16.7989 -19.3914 -3.9004
6.6036 -24.8818 -11.9262
14.2630 -13.0866 -5.5427
10.3721 -26.4157 -9.9056
9.5270 -24.5667 -8.5211
16.8431 -48.3717 -22.7507
11.9903 -23.7880 -8.4290
9.7908 -20.4760 -6.1669
8.6377 -21.4367 -5.1117
4.9493 -25.9221 -2.1094
24.5257 -19.9756 11.4401
10.1129 -24.7649 -9.0313
21.8744 -59.3765 11.0404
10.6342 -24.8908 3.3488
20.9053 -31.4808 -19.5767
22.9632 -18.9245 5.4071
9.6988 -26.9634 5.9996
7.2666 -20.8387 5.6032
18.8904 -40.0417 -3.6151
8.1356 -21.6546 -1.0429
12.0594 -24.0393 -6.8879
9.8415 -25.3640 -4.1737
21.0991 -15.5629 -2.9819
15.5388 -26.5318 -8.2741
16.0199 -15.9997 -9.5173
8.4661 -7.9939 -3.0388
27.2236 -24.6642 12.3131
15.7563 -22.2350 6.3355
21.5497 -19.8468 1.1760
12.9833 -28.6349 -12.3844
16.2233 -14.3711 -2.7290
11.2352 -25.3089 1.0963
16.4614 -25.6941 -9.1852
13.1909 -13.9819 -8.4374
5.5997 -5.5445 0.7762
17.7047 -11.5497 -0.6599
18.1066 -11.9703 0.4750
10.8991 -27.2553 -4.4226
24.0723 -20.3998 6.4963
17.9307 -40.7437 2.3596
23.1369 -45.4097 2.5996
25.1528 -66.5611 -24.8331
20.8008 -16.0029 -1.5732
21.1125 -18.9621 7.7306
19.1034 -17.8744 7.8960
16.1012 -22.2944 -14.8873
5.2716 -34.3178 -15.2499
16.7373 -67.4191 -33.3680
12.9671 -27.1732 -10.3257
15.5655 -11.7403 -0.0673
32.7047 -40.5258 10.3315
23.7681 -17.3913 7.9579
19.4370 -19.6352 8.3719
20.9427 -22.6884 9.9288
24.0534 -17.6822 10.4746
11.9588 -30.2419 8.5294
20.6901 -22.7032 10.7507
13.8411 -29.7550 7.2698
14.5274 -27.3002 8.4932
14.0529 -24.1631 6.5957
15.9678 -39.5597 -26.9913
12.6565 -25.6606 -13.8861
16.5312 -25.2016 -14.0281
14.6620 -26.9083 -2.4776
16.1552 -45.7121 10.2761
18.9824 -29.0228 -3.8714
13.9080 -26.9573 -6.0235
16.8656 -29.8759 -7.0749
19.1830 -37.1009 -13.1713
8.8517 -29.2708 7.0244
15.8165 -26.7876 7.5647
19.8332 -34.8719 7.8378
14.3444 -25.2491 -10.4514
21.4534 -27.1584 -8.1937
16.6187 -21.2819 -10.3900
15.2847 -29.3460 8.3012
22.9953 -17.8101 -3.8164
17.3506 -13.1970 -9.0151
18.5920 -24.9051 5.9282
14.9644 -28.0252 4.8076
18.0921 -25.0828 1.1913
20.6582 -22.8728 -2.1961
18.5416 -25.0974 6.8599
15.6747 -24.8281 -7.5560
23.3995 -17.5575 1.6512
18.6712 -17.9415 -0.6124
11.6410 -28.6864 -10.4709
18.1962 -27.5842 -9.3997
5.3064 -35.4939 -11.6879
23.0568 -15.6392 -0.4527
23.4699 -15.9084 -0.4658
13.6297 -27.9662 1.0303
24.9479 -18.4096 6.6569
33.0995 -66.3292 12.8193
1.9311 -31.9944 5.7407
16.0923 -26.9941 -10.6157
12.8153 -25.8456 -15.5312
21.9022 -25.5402 -17.6456
20.9530 -28.1542 -19.4187
22.8192 -15.8979 3.8309
18.2730 -34.6050 -2.6077
20.7237 -70.5642 -33.1116
18.0528 -31.1092 -11.9590
17.5285 -39.5615 -8.8211
21.9327 -67.4793 -25.2680
44.8254 -32.3608 -5.2966
27.0490 -19.1363 -4.1662
23.0328 -18.9766 -3.2966
14.9425 -42.6949 -27.1268
20.9102 -16.5706 -4.3088
18.2825 -18.9348 -12.9902
19.3494 -15.0667 -9.0640
26.7818 -42.3163 4.7562
19.8377 -16.6160 -9.1858
14.1190 -30.4436 0.6703
22.0213 -21.7221 0.9163
4.9547 -11.8045 -1.0677
27.6501 -42.4098 6.4308
2.7081 -5.4142 1.5694
9.3115 -33.8017 -17.8902
24.1673 -22.2530 -9.7687
24.2492 -40.8676 -13.9006
12.2960 -38.3057 -3.2515
16.1650 -33.7543 0.1118
17.9259 -36.4634 0.2015
18.2353 -78.8497 -6.5606
9.2611 -44.2234 -1.4200
12.8235 -47.7697 -0.0451
9.3650 -36.7362 4.7304
12.0673 -14.4565 5.6791
12.4108 -37.0858 7.6346
23.8508 -32.6794 -5.0893
11.3965 -36.0258 0.3411
37.1504 -33.3898 16.3224
18.6433 -32.8171 -21.9799
17.8074 -41.0781 3.9510
20.3370 -27.8668 -17.6657
37.1304 -48.1025 -30.4078
13.7842 -46.7820 1.5241
15.5569 -45.9019 1.7864
19.4201 -33.8351 3.3796
23.2110 -36.0543 3.2230
17.9323 -29.3339 -15.6692
18.9940 -35.5970 -0.7853
34.7322 -68.0449 -12.0028
14.2152 -42.5238 -6.2309
20.0049 -41.8956 -7.6694
14.5309 -41.9747 -9.6881
24.1313 -36.2754 -18.9664
19.0733 -30.1873 -8.1873
21.8310 -18.3075 -7.3524
28.8968 -46.1075 10.0562
21.8688 -27.2509 -18.9004
22.1723 -30.4745 -9.6335
24.7961 -20.9002 -13.8617
27.9903 -21.0409 4.3698
26.7666 -42.2128 -3.5087
15.9621 -40.6946 -10.5946
46.7512 -41.7862 -6.4819
44.2669 -34.2474 -4.0667
17.5154 -47.8438 -11.7200
23.3650 -30.2218 -15.0450
21.9972 -13.9269 -11.2736
28.3020 -48.5047 5.0175
27.7174 -20.7002 11.0878
17.2639 -26.3258 -11.1387
22.1882 -18.2266 -6.0196
22.5415 -17.9192 -3.0116
22.0510 -25.3594 -18.8784
28.1058 -25.4422 7.4442
24.4004 -42.5487 13.6539
21.2972 -26.3646 -19.5843
19.2063 -20.0136 -10.9593
25.0264 -29.2652 -19.5882
21.2878 -26.0839 -10.7152
36.9196 -44.0808 -30.2450
4.1230 -8.9286 3.9947
25.4488 -22.9273 5.0720
13.4540 -34.6427 0.8699
22.7554 -27.2285 -6.8951
4.2398 -9.1874 3.4727
18.2792 -19.4871 7.2391
18.9922 -41.7792 -20.7666
14.0152 -27.4710 -4.9983
17.7687 -10.8187 -7.3567
14.1738 -20.4104 -9.0714
19.1468 -15.2998 -7.3823
17.8940 -13.4956 -6.1600
4.3463 -5.0009 1.6082
3.5626 -12.8298 -5.6530
20.5581 -30.4956 -8.8412
36.1398 -56.8284 -24.6767
15.4464 -38.4933 -0.6932
26.5599 -29.0397 3.7603
26.3261 -24.6030 4.2091
17.9763 -80.0404 -3.0184
27.7603 -18.0284 5.4256
35.6695 -28.1203 7.6707
25.0982 -27.1624 8.3750
18.9656 -36.3267 8.5474
19.4012 -41.4694 9.9433
11.5788 -39.0771 9.4794
20.7824 -34.7978 -14.8638
18.9845 -27.4325 -15.7094
18.7420 -41.4110 -18.6413
12.7578 -46.6941 8.1905
13.8505 -42.5169 8.0389
21.4683 -38.8342 9.7268
13.3493 -47.0331 4.9579
42.1911 -70.3874 11.0579
41.0214 -65.7597 2.9757
38.4542 -65.4771 -2.4140
26.2758 -76.3346 -7.8837
37.1968 -68.1611 -5.5720
18.7522 -35.0321 -3.9502
20.2028 -41.6738 -9.4420
17.7976 -37.6860 -15.2583
23.4303 -15.6891 -4.0250
43.4465 -38.7118 -14.5340
24.6240 -27.0260 -9.5049
24.1493 -17.1724 -5.5888
20.5837 -12.6054 -9.3371
25.3257 -19.0053 -7.5915
29.5689 -32.5900 10.7330
28.4629 -22.3696 6.5786
39.1598 -31.3532 -19.3161
30.4779 -26.8277 -0.2845
27.2692 -22.5658 0.1874
29.5923 -29.1091 -0.8356
24.3240 -17.8681 -9.3257
28.0404 -22.0228 4.3627
20.1545 -14.3995 -8.1098
26.7257 -20.3751 -12.2556
19.9040 -79.6579 -9.0225
40.1635 -32.5264 -18.3249
25.4320 -31.4282 -5.5518
34.3343 -37.1180 13.5281
24.2583 -28.5441 -14.2768
10.6192 -34.8148 5.6304
10.2727 -27.1565 -6.0962
18.6690 -35.5598 -25.6751
15.9623 -39.5698 -22.8040
21.5359 -12.2651 -8.5735
18.6358 -34.8564 -13.8886
25.7402 -21.8557 -7.0751
16.7877 -51.6438 -2.4382
22.8227 -36.6516 6.2228
14.4639 -41.9752 9.7615
22.3175 -36.2065 8.8337
30.8007 -20.0248 -15.2577
18.3674 -39.7228 5.9416
17.1133 -40.5480 4.2835
52.4490 -42.3207 8.5330
20.2649 -29.9246 -16.6580
20.6717 -36.8416 -19.8508
18.0010 -39.5099 -4.8795
8.9007 -15.7787 -1.6446
37.6491 -26.3397 -9.5661
28.5206 -21.3006 -4.9721
40.8826 -56.8767 -19.3342
34.6063 -22.5804 -19.9610
30.0842 -23.1829 -6.6580
44.0914 -42.2882 13.1696
29.7380 -23.9091 -3.2004
29.4889 -23.7017 -3.4110
25.9650 -20.4036 -2.7711
22.6654 -37.1161 4.9112
34.1654 -29.9791 6.1058
23.0430 -44.0518 -0.6231
32.9340 -49.6476 -0.1197
35.7806 -25.4891 -13.2371
29.6894 -25.4246 -2.6634
46.1476 -42.1768 -11.3098
32.2903 -28.7380 14.6623
27.2350 -32.1029 3.8811
21.4340 -38.8051 1.1368
26.9302 -31.4958 2.5995
24.4455 -19.3009 -13.8619
7.5615 -11.6930 5.1672
26.9148 -34.6778 -3.4249
27.1976 -32.7277 9.2025
16.0006 -25.9136 -4.9316
18.6032 -42.2311 -11.6191
14.6991 -47.0539 -24.0268
20.2969 -39.9062 -17.8645
15.7534 -44.3189 -16.5277
37.4874 -35.4108 14.0174
33.6301 -28.9561 7.2776
21.1907 -12.3398 -9.5009
25.5715 -23.1632 -11.4418
32.2209 -22.5429 -9.4402
28.5645 -20.8518 -1.6462
29.1548 -20.4524 -0.3706
29.7095 -21.0613 0.6899
41.4658 -64.7779 -1.9546
39.9287 -63.4279 0.5241
52.8688 -41.9360 6.5394
0.7039 -9.7364 2.7313
4.8788 -14.0007 -1.2301
5.7582 -53.1192 -28.8252
4.1360 -35.9220 -15.6710
15.1311 -45.7704 -21.1438
24.4318 -40.0091 -18.1436
24.2739 -46.9189 2.7651
2.0715 -55.7845 2.8916
24.6653 -50.7414 13.6244
22.2352 -74.3725 8.9959
17.8758 -42.8503 -21.1774
28.1319 -50.4555 10.5680
19.3491 -39.4368 -19.4233
22.3849 -46.9974 11.6639
29.3014 -42.3329 8.2612
27.3806 -48.5443 13.3706
29.4188 -44.2085 13.1701
15.1103 -72.2287 -10.7076
42.4719 -46.1594 7.2488
27.9067 -40.6966 -7.1477
24.8644 -39.3449 1.6110
23.0487 -41.4221 -5.4656
34.4453 -54.5362 -32.9980
36.8208 -32.7621 -15.5618
32.0136 -53.5477 -24.7830
30.2152 -22.9557 0.4852
25.0059 -42.3106 0.4750
35.5609 -43.3566 11.7393
1.7498 -10.8309 3.6378
4.1681 -9.7155 4.5600
10.8292 -29.5071 5.1067
13.8202 -53.1166 -2.8999
36.2801 -47.9051 17.4418
20.3648 -32.4621 -21.5284
29.2284 -48.8272 -8.7646
34.3952 -64.5297 12.5723
35.8611 -34.7910 12.0659
33.8979 -35.7455 8.9548
36.0890 -43.4288 16.7971
34.8173 -38.1437 1.2859
35.0179 -26.3256 11.7071
17.9675 -38.0130 -22.7643
31.5674 -43.2116 -33.3360
22.5156 -27.4327 -18.1412
19.5695 -33.6567 -21.3162
19.5724 -40.0314 -26.0961
21.7864 -47.1332 2.5951
28.9570 -50.8397 -2.7923
18.6329 -47.3597 -6.9783
36.7150 -65.3253 -11.0639
15.6388 -51.2932 -10.7421
30.2201 -55.9847 -22.9112
43.6150 -29.9539 -9.9023
24.2308 -51.8495 -17.8066
41.1897 -35.5429 -10.5246
43.4851 -36.6802 -13.4587
27.5447 -24.3278 -3.6267
46.3670 -43.9002 -7.2048
37.5861 -27.8381 -20.5779
34.0357 -34.3715 -2.8547
33.9282 -26.8093 10.1856
28.2293 -38.6809 -2.5759
30.4497 -24.1753 -13.7140
37.4903 -25.8988 -15.6887
40.8546 -32.1124 1.8122
39.7998 -36.4581 0.8775
33.2995 -34.6554 0.3251
34.0946 -23.7282 -15.3469
43.2863 -44.5824 9.2927
39.0320 -30.7080 -21.3346
31.9884 -49.6904 -35.3235
23.0556 -18.2236 -10.6521
25.5393 -17.1555 -11.2003
35.8402 -42.0870 -12.3977
36.3783 -50.1267 -1.9086
42.2971 -37.2018 -9.3145
28.7133 -34.9935 -8.0388
20.3517 -66.3177 -33.6162
-1.6607 -80.9366 2.6589
19.9165 -79.8234 14.4296
34.6809 -54.0255 -25.5823
25.9069 -18.2970 -4.5026
25.5425 -51.9263 0.6949
12.9602 -52.9091 1.1428
25.7938 -44.0210 4.9486
24.8049 -45.5537 8.0229
34.8868 -26.0274 11.5199
0.3932 -0.5962 -0.0124
26.4769 -58.6316 15.3443
25.3581 -46.3821 14.8664
24.6877 -46.1747 9.6119
28.1658 -18.2503 -14.8000
33.2228 -39.3829 -31.1356
33.5214 -42.4999 -33.8038
25.5137 -76.2011 15.0840
33.8750 -50.9612 -39.5041
33.2090 -22.4121 -17.5395
31.9567 -44.7494 -32.7105
29.9674 -50.7770 -35.9570
31.6336 -21.8673 -15.2885
28.4877 -39.2179 -21.0590
32.1425 -56.5753 -30.9974
38.1098 -33.5756 11.3021
27.9968 -21.1953 -8.4320
18.7123 -55.0017 5.8790
29.6664 -65.5953 -31.2022
26.4143 -66.5581 -31.6687
14.7246 -56.7928 3.1843
39.7035 -28.5486 -10.8631
23.8799 -47.6632 4.6355
23.2311 -73.1547 0.5835
34.2808 -62.9304 -23.1255
22.4928 -44.9354 2.7305
40.9706 -28.9374 -7.4446
45.5645 -33.8124 -7.7731
43.6220 -64.6728 3.3231
16.0212 -52.5000 -13.4188
20.7021 -76.3890 -22.0323
18.7795 -72.3373 -17.3696
23.6820 -68.0162 -12.6858
19.4801 -75.3665 -14.4927
41.8156 -37.5218 -1.0668
45.9410 -42.7128 -2.2145
21.2179 -46.6972 -4.8623
27.9447 -32.5925 -20.5978
32.7384 -24.4856 -14.0514
32.3588 -26.9862 5.0379
30.2856 -31.3976 0.5250
34.4971 -43.4615 -13.0653
26.5292 -21.8922 0.2710
18.2747 -54.9139 -39.7031
45.3221 -45.3063 19.2525
49.9283 -46.9594 20.4889
24.7284 -49.0007 -23.3509
33.8247 -58.0812 -29.3872
19.5101 -50.0549 -10.7170
19.4149 -50.5471 -8.5569
19.1050 -50.2811 1.4602
20.0721 -50.9720 3.5729
33.3224 -36.6230 9.3145
17.2105 -51.4039 6.9962
34.0632 -69.5128 15.4001
29.6660 -55.3831 17.1208
29.2666 -58.0002 15.4525
24.3074 -59.3682 13.6037
18.2382 -81.8125 5.5393
24.3334 -47.4030 6.6136
17.4699 -51.7035 1.6807
22.5094 -48.8385 2.4316
20.1530 -48.4919 -3.2056
32.5653 -25.2687 0.4175
36.4549 -28.7405 0.0900
23.6741 -34.8074 -13.6026
30.7466 -66.2028 12.5718
38.2650 -59.8938 7.9421
25.1733 -75.8287 -3.5644
24.0051 -46.0657 4.7263
32.4913 -65.2744 2.2917
36.3322 -28.5541 -21.4802
36.0167 -41.0504 -25.5982
4.4590 -10.5096 5.2023
14.1867 -50.2012 -35.4986
28.5437 -17.4778 -12.9858
34.6494 -51.0320 -34.3380
17.9477 -55.3463 -27.4587
44.8378 -38.1997 11.3458
44.2029 -33.0156 -1.6256
40.0494 -42.7898 17.7580
43.5650 -41.2368 11.2444
50.0973 -44.1453 18.1566
29.8294 -26.9821 -10.9647
14.2188 -62.2173 -9.2770
44.6972 -49.5878 4.8070
15.4157 -77.6233 -1.4099
13.9022 -56.8395 4.4685
26.1664 -48.6490 13.9786
21.2755 -53.7341 10.0979
19.8772 -53.9648 3.8148
25.1810 -69.7163 1.1131
16.9840 -59.7948 -7.8220
32.1259 -70.1534 -12.8142
25.4670 -57.2010 -11.9464
37.4084 -55.9974 -21.8798
26.1210 -50.9640 -14.8664
22.1712 -77.5667 -4.1292
34.0998 -58.0524 -20.9423
27.1363 -46.7004 -17.6675
26.1156 -67.2590 -28.5360
17.6022 -40.5958 -21.7559
17.1232 -52.5797 -33.8905
6.5746 -58.8468 -34.2855
18.3223 -60.5186 -31.8077
26.1345 -63.2380 -32.0904
32.4887 -32.1579 -15.0119
15.5651 -57.1052 -25.3624
15.0757 -59.1322 -11.3567
38.2352 -44.9047 2.9431
20.6306 -54.0449 -36.0188
52.9359 -46.6528 21.0221
20.4950 -63.0340 -44.4862
19.7277 -51.5679 -29.9183
50.9505 -42.7098 6.2514
32.8873 -22.2068 -12.5454
29.3400 -63.2271 -34.9210
30.0726 -60.1116 -28.2003
27.9715 -51.7508 -23.2261
17.7111 -57.5173 -17.6618
40.3330 -67.1839 20.5730
42.2635 -35.6897 -6.4345
45.8909 -40.4369 -8.3106
35.4848 -26.0872 -21.2755
41.0612 -36.3218 -2.7987
30.8853 -26.3913 -10.4980
46.3548 -35.1024 -0.2963
45.4946 -44.8137 -2.7946
53.1265 -47.2416 14.7960
12.0562 -16.7908 6.1124
25.2746 -62.1495 -34.0913
43.4310 -38.4847 9.4199
54.9970 -44.7666 10.8308
37.6328 -45.4710 -28.6651
36.5986 -50.8887 10.1192
19.9787 -77.6685 -6.1677
39.5960 -70.8904 7.9756
43.7467 -65.8649 6.0262
35.8685 -63.4339 2.6335
31.3981 -64.8402 -5.3001
41.3049 -62.5617 -6.9938
38.9043 -52.1165 -14.4551
24.8038 -59.0933 -10.2760
35.9748 -54.7960 -29.3237
14.3202 -56.0575 -0.6822
18.4258 -49.6967 3.7929
24.4133 -53.6835 -26.5192
23.2857 -47.3399 -23.0115
20.9196 -61.1218 -16.8905
2.8690 -63.9279 9.3736
41.8909 -73.0949 19.0832
22.1843 -53.1047 -36.4843
30.7654 -40.2998 -28.6671
29.9736 -55.4132 -39.5366
36.2557 -68.8961 15.1910
22.0769 -53.9113 -34.1357
40.9039 -65.0491 13.2475
23.2946 -46.9668 -27.4083
30.1703 -52.8594 -31.5416
36.8446 -44.2306 -18.4660
33.6546 -48.1124 -17.8988
34.1794 -57.8550 -6.4312
37.9691 -54.6331 -5.3372
32.4607 -35.0353 -22.8716
43.0758 -34.6436 -6.2197
51.4188 -57.7381 17.4336
43.2177 -37.2672 1.0886
35.3939 -74.7399 16.9251
35.3585 -66.3324 -2.6500
39.7676 -34.1183 -19.3623
41.6020 -58.1457 3.7046
16.0207 -69.3714 -4.2682
10.6393 -20.1370 7.3494
35.7180 -30.2477 -26.6190
31.7098 -47.6944 -24.8997
32.8986 -54.5679 -17.9462
43.6786 -29.5762 -4.2670
21.7923 -65.0059 -14.2370
14.6015 -70.7824 -8.5962
30.8522 -59.3620 -2.4771
34.0466 -64.5123 2.4695
49.9841 -59.7077 12.1677
0.9619 -76.2184 1.3260
46.8122 -57.3543 13.8555
19.9248 -65.6392 7.3998
17.4536 -70.7969 15.0692
15.9710 -69.8411 -3.6417
18.8751 -75.5182 11.2050
53.2419 -45.0219 14.6531
19.7738 -67.7861 3.0599
26.1282 -59.9521 4.2552
27.2511 -58.1005 -4.6840
35.1094 -50.2788 -28.7775
36.9836 -66.7428 -8.3296
36.0527 -53.3471 -23.3864
13.4782 -39.9203 -9.0743
38.7553 -50.0564 -18.8327
36.3909 -55.7676 -18.8881
43.7880 -35.6003 -10.6998
37.3922 -61.3266 14.7803
44.7394 -36.8758 -9.1359
30.0582 -50.1458 -12.6859
53.2982 -50.1205 23.8484
59.8151 -52.8033 25.3547
30.9795 -64.7522 7.4867
38.8809 -49.5361 -11.0471
34.4798 -67.2894 5.1844
43.6573 -41.0759 -8.6498
46.1147 -52.7566 9.4079
39.0720 -32.5160 -22.7049
41.2555 -55.0151 6.2968
4.0332 -12.9975 8.2446
24.0708 -51.1896 6.5833
55.2202 -40.9193 5.1136
41.2627 -73.6631 -1.1148
52.4738 -64.7642 23.1932
20.9385 -79.7289 8.7371
32.2118 -59.1558 -39.2569
35.6861 -24.3056 -16.9687
44.8763 -74.6893 14.1940
27.9083 -65.6497 -40.2320
24.4269 -70.4168 3.3745
41.7232 -67.3508 5.6255
32.2082 -64.2902 -27.3092
58.0508 -54.9686 20.6976
52.7651 -59.6805 23.0361
8.0802 -38.0271 -9.8655
1.1307 -40.6820 -17.1796
28.6853 -65.6411 -38.0712
44.8610 -61.4014 -11.3854
50.6325 -50.2637 0.8555
53.0085 -61.2189 9.9862
41.1084 -81.3932 20.1625
36.3825 -52.5308 -33.7270
29.7908 -77.6711 9.6907
27.7472 -68.0393 -45.7451
49.7269 -41.7987 0.5507
45.3058 -57.1058 -26.2989
26.8943 -81.9043 -20.4223
53.1821 -37.1555 -4.3535
44.1834 -51.7888 -19.9226
45.8575 -35.3309 -15.1492
52.9261 -51.2491 -1.1934
46.2129 -36.2548 -13.3239
58.2497 -57.1031 23.7546
58.2651 -48.0687 11.6198
42.8744 -32.2428 -18.5217
60.5179 -54.8027 19.1231
56.3758 -52.0940 13.5491
55.7830 -50.5463 6.1044
55.3917 -53.0521 5.7995
47.5182 -60.9381 -6.2868
23.0298 -71.1497 -51.7532
22.2625 -76.8097 -43.1382
48.2312 -42.6146 -14.1487
50.7796 -53.2674 -1.6507
1.8400 -26.3040 -3.5047
38.4011 -23.4786 -15.9087
42.4241 -25.3850 -14.0052
18.9870 -90.7059 4.3071
43.1371 -79.2243 11.8367
38.7819 -85.9297 17.9030
26.4863 -69.3497 12.3982
63.4000 -54.9281 19.3837
43.2077 -74.1872 5.1759
40.9221 -53.6477 -38.3275
46.9425 -74.6914 -6.6374
44.4420 -66.9141 -5.0308
49.6281 -68.1450 -4.8714
51.8625 -43.5877 -1.6023
43.0607 -66.7861 -14.3582
38.0831 -67.6500 -21.9794
45.1554 -30.0033 -11.9831
37.5419 -26.2919 -24.2368
50.9101 -75.7316 12.0879
55.2845 -39.9804 1.8777
42.5951 -54.0419 -32.4702
51.3832 -78.1575 21.2546
39.2798 -62.7546 -26.3530
49.4210 -68.9644 -2.0796
57.4833 -58.6527 8.3135
31.5793 -31.3567 15.9737
16.6150 -22.0436 12.7155
49.7595 -50.3242 16.5170
24.0182 -80.5376 -40.6869
54.1407 -59.1388 2.8128
55.0578 -40.5017 8.0514
25.2469 -87.9155 -3.3273
-1.5845 -94.4290 3.2864
24.2335 -90.9986 10.2246
44.3917 -86.7646 21.8280
36.3337 -82.8025 1.0591
34.4699 -83.2867 -8.8780
35.4825 -76.5519 -25.6706
37.6834 -65.0381 -31.5443
37.2046 -88.6224 18.0212
42.1312 -27.9207 -12.9804
46.2671 -83.7737 20.7679
51.6040 -75.2479 9.3586
44.2187 -37.5042 -18.9644
41.5748 -28.4104 -15.7874
48.5661 -41.2061 -10.7889
33.1798 -27.9633 1.4406
54.6498 -41.5049 -0.8816
55.9291 -52.2291 -3.7639
65.7049 -53.4127 22.9821
39.5206 -32.1981 -25.1923
39.3683 -30.3243 -23.5932
48.4874 -62.8096 -3.5917
50.5446 -70.8508 0.5988
14.8879 -41.0745 6.5235
38.1792 -29.1232 -24.6611
45.6031 -54.0193 -17.9770
0.8539 -15.5718 9.0632
-0.8080 -17.3858 8.7479
26.5480 -75.6645 -39.7036
45.5869 -41.0688 -18.7601
28.1588 -84.6325 3.5386
0.2137 -0.6119 -0.1037
43.2974 -69.1818 -8.5862
29.2233 -87.7026 -18.0784
55.0723 -42.7511 -3.3188
44.8088 -57.9099 -16.7497
3.6552 -30.9572 7.4616
7.7316 -14.8433 -2.2145
0.6193 -0.6315 -0.0605
32.3685 -59.2619 -30.0791
53.2589 -47.6364 -17.2043
53.8427 -48.9747 -14.8015
62.6205 -68.6624 17.4519
64.5645 -72.6330 23.8597
18.4848 -77.7070 -4.1737
23.4831 -77.7234 9.5041
38.7831 -56.3706 -25.3152
39.3622 -54.4233 -21.0841
35.1761 -70.6735 -5.8612
26.6753 -73.1710 -17.2020
20.0738 -76.0742 -18.3271
29.5244 -72.3398 -13.4083
45.0422 -62.1866 -6.4080
47.0178 -58.1719 -10.8746
16.0137 -78.2176 -8.7797
46.0570 -52.1596 -14.1821
16.4980 -77.0440 -15.2442
13.5638 -79.5675 10.8224
37.6413 -48.1114 9.8515
14.4918 -60.7395 10.9247
20.6693 -59.1891 -23.9682
30.1172 -49.7965 -15.7482
34.8844 -52.0338 4.8099
23.8472 -56.2443 7.9657
-1.0024 -37.8556 -4.6128
12.7378 -27.7869 7.3539
11.3287 -27.7610 10.1611
10.8190 -28.4772 13.0272
0.4319 -0.6381 0.0438
0.1112 -0.6121 0.0888
-2.9036 -36.1077 9.3915
3.2323 -34.8032 11.4752
0.2364 -0.6227 0.0875
-1.8679 -35.4928 9.5489
4.3614 -31.6697 10.6723
1.9357 -34.2025 9.0550
3.2659 -34.0185 9.2782
4.5673 -32.8041 7.2495
9.5070 -30.8349 7.7188
9.7651 -31.6165 4.2777
8.6736 -31.4957 1.9882
10.0863 -31.2509 2.1309
0.4527 -0.6366 0.0726
0.3957 -0.6104 0.0678
6.4966 -31.6583 9.3891
-2.2382 -36.5716 6.0996
11.1408 -31.0092 3.4343
10.0673 -30.2420 8.9036
0.0537 -0.0637 -0.0255
10.7403 -30.0876 6.8681
8.0763 -32.3706 6.3098
-1.7960 -36.8250 3.6912
9.8532 -17.1281 8.7802
7.8252 -12.8098 -2.2398
36.8666 -31.5652 4.5699
6.5256 -25.6247 -0.1440
14.6524 -20.3271 0.6157
7.7479 -23.8357 -3.7726
8.0815 -22.9381 -3.2561
12.1896 -22.5129 1.8423
17.8502 -21.2541 3.6160
15.8392 -21.1268 3.5610
8.4387 -25.4252 2.0398
12.3937 -23.4085 3.7589
12.5912 -24.7075 6.2859
8.5902 -22.5291 -1.9779
3.9880 -18.2792 -0.3293
7.9996 -15.5370 1.4705
8.9234 -16.4255 2.5551
9.2745 -16.8648 3.1958
4.5892 -18.9908 2.1393
8.9779 -17.5412 3.7043
10.2030 -17.8566 4.4862
10.5526 -18.3282 5.1707
10.1145 -18.6890 5.0222
5.3638 -21.6485 4.6841
10.8247 -19.3542 7.1034
0.3509 -0.5697 -0.1741
10.7794 -19.9488 6.9590
9.8387 -20.1996 6.8274
-0.8905 -25.3716 3.3687
6.5877 -22.6900 6.8887
12.0874 -20.6339 8.6421
0.7924 -25.0221 5.0899
10.6267 -21.2883 8.3968
-3.7935 -27.8305 3.4373
0.7022 -25.2092 5.8719
6.0212 -23.5420 8.2619
9.9813 -22.3953 9.8474
0.8087 -25.6703 6.6344
13.0055 -22.0906 11.1803
4.9830 -24.9554 8.7989
12.5951 -22.9401 11.9016
0.7296 -26.2034 8.1642
13.8529 -23.2752 13.0196
13.0279 -23.8945 13.6979
11.7303 -23.9994 13.4608
10.6989 -24.2559 13.2785
6.6569 -24.6990 11.7089
0.6368 -0.6531 0.0260
0.7401 -26.8714 9.7039
7.8726 -25.0947 12.8092
0.6566 -27.0701 10.4763
5.3574 -24.8266 12.7526
12.1225 -25.6725 15.2853
5.0653 -26.3107 12.6826
3.4146 -27.1442 12.4802
4.0639 -26.8428 13.3303
2.1790 -27.2831 12.9868
0.2565 -0.6577 0.1459
-0.4653 -26.2189 2.3151
-1.8542 -28.4696 2.9552
0.0711 -0.6060 0.1530
0.1004 -0.6219 0.1499
0.1273 -0.6232 0.1422
0.2098 -0.6020 0.1365
0.1571 -0.6362 0.1377
-3.3013 -31.0732 10.3779
-0.5861 -30.0801 11.7011
7.1196 -16.8414 0.7353
-2.3528 -30.6623 10.5325
0.2119 -0.6332 0.1201
-3.0609 -25.9679 -2.7115
-4.2839 -31.0787 9.3028
8.6580 -17.4774 2.0628
-0.8340 -26.0705 -1.7759
2.8317 -27.9893 12.5390
-1.7629 -26.5073 -1.9479
-2.6577 -27.0991 -2.2021
9.9594 -17.7190 2.7852
7.7337 -17.9675 2.6516
-3.5350 -30.1623 9.4099
0.2161 -28.9563 10.9156
0.4571 -24.7036 -0.1581
8.3451 -18.6001 3.2507
4.2993 -27.0142 12.7469
3.5504 -21.9816 2.0585
2.1193 -21.6874 2.1519
0.9340 -28.3376 11.1574
8.3827 -18.9334 3.9978
1.8044 -27.8269 11.4821
9.6536 -19.1802 4.8455
8.8958 -19.5336 4.6956
-1.2073 -26.5932 1.1603
2.1024 -27.8719 10.7222
-2.6048 -28.3664 0.5358
11.8106 -20.7438 5.5993
3.0148 -23.2091 3.3205
-3.4238 -29.2103 0.2118
10.3998 -19.2818 5.9706
9.5853 -21.2272 5.4131
8.2675 -21.2237 5.2348
6.1499 -21.6644 4.9021
9.0867 -26.2234 13.0637
-0.3118 -29.3665 9.0398
2.5568 -24.2363 3.8110
-2.6216 -28.7563 1.4860
4.2025 -23.7458 4.8182
1.8296 -27.1841 9.8696
3.2139 -23.8999 4.7046
11.2829 -21.3673 7.5889
6.9931 -24.0560 11.7884
-1.3637 -27.7984 4.4495
11.7028 -22.2881 9.2604
1.6698 -26.6315 9.0388
7.4515 -26.7677 10.7039
1.1968 -26.8309 5.7716
1.9199 -25.9996 6.7008
-0.4801 -28.3881 7.2718
-0.4770 -25.1362 7.5347
-4.3858 -30.7222 2.2723
0.0350 -0.6701 0.1749
4.0595 -25.1445 8.6543
2.8273 -27.6783 11.6784
3.4001 -26.9896 11.7447
3.9630 -21.6446 3.0267
5.9449 -24.3419 8.1570
7.8770 -24.4223 13.5846
3.7333 -25.7429 10.9435
5.9500 -25.6107 11.3110
9.9028 -24.6635 13.1677
9.9482 -24.3387 12.3029
4.9960 -23.9506 6.4905
5.5324 -26.0505 10.4296
6.4181 -25.0703 8.9671
0.7361 -25.5193 4.0965
11.6521 -23.5941 12.5815
0.0782 -0.6031 0.1765
4.7897 -23.1722 4.9947
4.7982 -21.9665 4.5758
5.4879 -20.9285 3.3630
5.8031 -23.9090 7.3783
4.7495 -25.9100 11.9169
4.2514 -26.6371 11.8735
0.8170 -10.4937 4.8893
18.1029 -25.6470 12.3435
9.5794 -24.6211 2.7866
18.1551 -22.6874 7.5815
8.1996 -14.7330 2.2214
10.8912 -18.5999 5.1730
8.1082 -19.8230 5.9932
9.4564 -21.6267 8.2199
12.1823 -21.1852 9.4047
8.2989 -22.6169 7.9472
9.1157 -22.6420 8.8786
11.2481 -22.5322 9.9973
8.9611 -22.8209 9.6628
12.2924 -22.9733 11.8181
10.5849 -23.7385 11.5197
8.9181 -24.8557 12.1042
0.5389 -0.5958 0.0356
9.6212 -24.6785 13.0266
4.7376 -19.4763 1.4144
8.4797 -17.0946 3.1571
9.4340 -17.1943 3.9876
-3.6329 -23.9851 0.1893
0.1954 -22.7025 3.2726
2.0603 -22.8993 4.8123
4.2341 -23.4289 6.4616
0.7164 -24.0763 5.2378
3.2228 -23.5651 6.3498
-1.5434 -25.9420 4.8191
3.5017 -24.1445 7.0600
2.5865 -24.3748 6.9379
-3.0843 -27.0885 4.4632
-0.4697 -26.1741 5.7365
-3.8845 -27.6732 4.2733
4.6252 -24.7139 8.6968
-3.8344 -28.1553 5.0793
2.9903 -25.4250 8.4305
4.1530 -25.7873 9.3712
-4.7829 -28.7982 5.8055
3.4916 -26.6716 10.0358
2.7616 -27.1991 9.9103
-1.3353 -27.9967 8.9006
1.2834 -27.3798 11.2982
0.2025 -0.6723 0.1664
-2.1396 -29.6211 11.3234
0.1382 -0.6391 0.1731
0.0531 -0.6039 0.1835
0.7514 -0.7488 0.0374
0.6426 -0.6427 -0.0077
0.5069 -0.7176 0.0632
0.1830 -0.6358 0.1038
0.1553 -0.6515 0.1813
0.1081 -0.6289 0.1771
0.0390 -0.6027 0.1342
0.6424 -0.6483 -0.0327
0.0511 -0.6251 0.0827
0.0547 -0.6400 -0.0955
0.5869 -0.6700 0.0484
0.0015 -0.6050 0.0879
0.0450 -0.5918 0.1928
0.3507 -0.6199 0.0861
0.1783 -0.6108 0.1227
0.0643 -0.6074 0.1282
0.0376 -0.7402 -0.0832
0.5438 -0.6347 0.0201
0.2564 -0.0551 0.0383
0.3084 -0.7057 -0.1330
0.3948 -0.6264 -0.1018
0.1860 -0.6113 -0.0400
0.3558 -0.5931 0.0729
0.0715 -0.6200 0.0491
0.5460 -0.6602 -0.1386
0.0443 0.0166 -0.0250
0.5646 -0.6268 -0.1263
0.1330 -0.6224 0.0578
0.0770 -0.6090 0.0712
0.4561 -0.6635 -0.0020
0.4366 -0.6434 0.0691
0.0135 0.0207 -0.0084
0.1002 -0.6600 0.1998
0.0162 0.0323 -0.0259
0.0120 0.0339 -0.0252
0.3689 -0.6231 -0.1508
0.5524 -0.6278 -0.0690
0.1324 -0.6930 -0.0518
0.2406 -0.6792 -0.0056
0.2019 -0.6154 0.0092
0.1969 -0.6064 0.0890
0.2630 -0.6071 0.1058
0.5038 -0.5535 -0.2238
0.3566 -0.6116 -0.1727
0.7556 -0.7754 0.0749
0.2382 -0.6051 -0.1821
0.2529 -0.6170 -0.1394
0.4046 -0.6248 -0.0796
0.2303 -0.6193 -0.0567
0.1411 -0.6298 -0.0481
0.2269 -0.6311 0.0380
0.1631 -0.6162 0.0484
0.1668 -0.6034 0.0703
0.1086 -0.6103 0.0637
0.3142 -0.6092 0.0921
0.5673 -0.6690 -0.2007
0.1653 -0.1211 -0.0547
0.3810 -0.5986 -0.0586
0.5982 -0.6344 0.0046
0.4059 -0.6057 0.0131
0.5049 -0.6196 0.0533
0.5474 -0.6166 0.0637
0.4993 -0.6489 0.0661
0.4070 -0.6584 0.1049
0.1968 -0.6272 0.1705
0.0785 -0.5917 0.1905
0.4462 -0.6792 -0.2444
0.3307 -0.6265 -0.1849
0.1970 -0.6232 -0.1699
0.2416 -0.6174 -0.1118
0.1525 -0.6246 -0.0830
0.1786 -0.6075 -0.0640
0.2571 -0.6134 -0.0654
0.4687 -0.6071 0.0021
0.2375 -0.5958 0.0098
0.0938 -0.6113 0.0154
0.3940 -0.6318 0.0502
0.0988 -0.6212 0.0411
0.4038 -0.5978 0.0918
0.5051 -0.6068 -0.3181
0.3395 -0.6039 -0.1881
0.3855 -0.6261 -0.1544
0.1841 -0.6119 -0.1196
0.1889 -0.6175 -0.0957
0.5125 -0.6211 -0.0855
0.4113 -0.6248 -0.0556
0.4387 -0.6292 -0.0332
0.5872 -0.6286 -0.0219
0.5222 -0.6078 -0.0122
0.3896 -0.6442 0.0028
0.4445 -0.6447 0.0213
0.7607 -0.7448 0.0402
0.4452 -0.6372 0.0466
0.2385 -0.6135 0.0658
0.2999 -0.5606 0.0964
0.2333 -0.5612 0.1293
0.0982 -0.6105 0.1726
0.1952 -0.6020 -0.2449
0.1424 -0.6079 -0.2327
0.2359 -0.6549 -0.2373
0.2062 -0.6139 -0.2237
0.1778 -0.6080 -0.2152
0.3809 -0.6208 -0.2217
0.2439 -0.6456 -0.2125
0.2114 -0.6098 -0.2002
0.1616 -0.6495 -0.1901
0.5384 -0.6316 -0.2329
0.3542 -0.6025 -0.1854
0.0470 -0.6151 -0.1510
0.1095 -0.6332 -0.1442
0.3081 -0.6177 -0.1561
0.0798 -0.6200 -0.1343
0.1546 -0.5669 -0.1261
0.3401 -0.6261 -0.1399
0.1060 -0.5618 -0.1064
0.1537 -0.5606 -0.1153
0.2200 -0.6081 -0.0809
0.2863 -0.6149 -0.0501
0.0884 -0.6188 -0.0323
0.0924 -0.6233 -0.0074
0.3370 -0.6440 0.0176
0.1697 -0.6504 0.0313
0.3241 -0.5950 0.0330
0.1251 -0.6186 0.0326
0.4664 -0.6289 0.0675
0.1387 -0.6179 0.0824
0.3039 -0.6293 0.1042
0.0293 -0.6087 0.0873
0.2963 -0.6108 0.1238
0.1484 -0.6058 0.1042
0.0574 -0.6140 0.1055
0.0330 -0.6108 0.1115
0.2213 -0.6170 0.1630
0.1672 -0.6440 0.1660
0.1736 -0.6364 0.1819
0.1143 -0.6269 0.1966
0.0354 -0.5960 -0.0838
0.3014 -0.6212 -0.3798
0.4851 -0.6211 -0.4201
0.3971 -0.6105 -0.3923
0.4601 -0.5997 -0.3573
0.3387 -0.6151 -0.3263
0.4485 -0.6158 -0.3280
0.3393 -0.6063 -0.2967
0.4616 -0.6164 -0.2770
0.3558 -0.6119 -0.2474
0.6198 -0.7219 -0.2637
0.2532 -0.6168 -0.1626
0.3871 -0.6184 -0.1292
0.3735 -0.6267 -0.1250
0.4954 -0.6160 -0.1340
0.5324 -0.6206 -0.1178
0.3605 -0.6317 -0.0955
0.3775 -0.6109 -0.0777
0.6189 -0.6575 -0.0517
0.2112 -0.6118 -0.0272
0.5221 -0.6158 -0.0365
0.2030 -0.6090 0.0076
0.5693 -0.6588 0.0201
0.4210 -0.6074 0.0170
0.5063 -0.6119 0.0209
0.6740 -0.7267 0.0489
0.2206 -0.6196 0.0600
0.3485 -0.6805 0.1459
0.2986 -0.6595 0.1377
0.1685 -0.5995 -0.3375
0.2051 -0.6189 -0.3268
0.1752 -0.6012 -0.3141
0.1442 -0.5771 -0.3004
0.2810 -0.6005 -0.3180
0.2339 -0.6039 -0.3062
0.1818 -0.6012 -0.2907
0.1243 -0.5939 -0.2782
0.4127 -0.6128 -0.3438
0.2882 -0.6024 -0.2955
0.2162 -0.6068 -0.2765
0.4724 -0.6071 -0.3359
0.4177 -0.6100 -0.3183
0.1101 -0.1577 -0.1682
0.1904 -0.6067 -0.2691
0.1065 -0.6075 -0.2506
0.0579 -0.6268 -0.2349
0.0258 -0.6067 -0.2239
0.3913 -0.6003 -0.2825
0.0873 -0.6213 -0.2197
0.1287 -0.2006 -0.1473
0.1493 -0.6077 -0.2080
0.2599 -0.6118 -0.2140
0.0392 -0.6163 -0.1770
0.5079 -0.6229 -0.2264
0.2994 -0.6282 -0.2006
0.0742 -0.6196 -0.1599
0.4902 -0.6364 -0.2231
0.0198 -0.6117 -0.1425
0.2694 -0.6031 -0.1667
0.5004 -0.6405 -0.1879
0.2008 -0.6171 -0.1472
0.4086 -0.6261 -0.1615
0.3127 -0.6137 -0.1338
0.4119 -0.6215 -0.1359
-0.0167 -0.5596 -0.0750
0.2476 -0.6154 -0.0882
0.3027 -0.6192 -0.0799
0.0727 -0.6145 -0.0585
0.1615 -0.6170 -0.0579
0.3366 -0.6216 -0.0642
-0.0064 -0.6096 -0.0346
0.3657 -0.6157 -0.0489
0.1964 -0.6366 -0.0403
0.3016 -0.6183 -0.0037
0.0693 -0.6243 0.0019
0.4454 -0.6096 0.0114
0.0151 -0.6195 0.0411
0.0476 -0.6111 0.0560
0.2905 -0.6155 0.0755
0.0232 -0.5988 0.0604
0.2506 -0.6346 0.1168
0.0629 -0.6005 -0.0925
0.4178 -0.5918 -0.5684
0.0829 -0.5515 -0.4046
0.4605 -0.6093 -0.5636
0.4319 -0.6010 -0.5505
0.2935 -0.1649 -0.3149
0.0907 -0.5525 -0.3839
-0.0775 -0.4861 -0.2857
-0.0895 -0.5686 -0.3039
0.2547 -0.5425 -0.3930
0.3121 -0.6175 -0.4280
0.1002 -0.5555 -0.3313
0.3279 -0.6346 -0.4102
0.2209 -0.2481 -0.2621
0.1194 -0.5520 -0.2859
0.4904 -0.6139 -0.3960
0.4267 -0.5991 -0.3740
0.4945 -0.6266 -0.1884
0.1771 -0.1611 -0.1302
0.0766 -0.0611 -0.1376
0.1009 -0.0918 -0.1304
0.4187 -0.6515 -0.1068
-0.0035 -0.5721 -0.0597
0.5574 -0.6356 -0.0957
0.6043 -0.6488 -0.0789
0.1300 -0.1648 -0.0809
0.0128 -0.6164 -0.0746
0.2958 -0.5923 -0.5021
0.0022 -0.5690 -0.3766
-0.0476 -0.5768 -0.3658
0.4076 -0.6042 -0.5438
0.2804 -0.6141 -0.4758
0.1664 -0.6004 -0.4309
-0.0864 -0.5389 -0.3143
-0.0400 -0.5837 -0.3443
0.0375 -0.6021 -0.3739
0.3202 -0.6053 -0.4560
0.1499 -0.5920 -0.3886
0.1286 -0.6094 -0.3881
0.4460 -0.5949 -0.4918
0.4264 -0.6042 -0.4886
0.1788 -0.6036 -0.4017
0.0756 -0.6022 -0.3469
-0.0323 -0.6118 -0.3165
0.2571 -0.5865 -0.3849
0.1841 -0.5899 -0.3654
0.4516 -0.6169 -0.4395
0.0034 -0.6112 -0.2999
-0.0245 -0.6087 -0.2907
0.4138 -0.5910 -0.3947
0.0109 -0.6175 -0.2765
0.0982 -0.6005 -0.2730
0.0193 -0.6186 -0.2517
-0.0087 -0.6056 -0.2404
-0.0005 -0.6115 -0.2169
-0.0302 -0.6892 -0.2202
0.0595 -0.5990 -0.2074
0.0336 -0.6035 -0.1994
-0.0202 -0.5962 -0.1818
-0.0447 -0.5970 -0.1744
0.0145 -0.6021 -0.1664
0.1617 -0.6244 -0.1854
0.2221 -0.6220 -0.1778
-0.0293 -0.6174 -0.1262
0.0820 -0.5969 -0.1329
0.0032 -0.6049 -0.1081
0.3443 -0.6182 -0.1433
0.2662 -0.6147 -0.1198
0.3262 -0.6190 -0.1122
0.1306 -0.6169 -0.0744
0.5428 -0.6255 -0.1213
0.0222 -0.6184 -0.0409
0.0037 -0.6154 -0.0087
0.0372 -0.6193 0.0090
0.2767 -0.6199 0.0044
0.1267 -0.6251 0.0091
0.5605 -0.6824 0.0042
0.0455 -0.6239 0.0351
0.0831 -0.0218 -0.2147
-0.0327 -0.1247 -0.1752
0.1364 -0.6180 -0.2746
-0.0251 -0.0258 -0.1341
-0.0214 -0.0884 -0.1300
-0.0176 -0.1308 -0.1287
0.2079 -0.5983 -0.0495
-0.0083 -0.0687 -0.1952
0.0138 -0.0171 -0.1861
-0.0200 -0.0213 -0.1601
-0.0142 -0.0244 -0.1435
-0.0005 -0.6248 -0.1327
0.0387 -0.6541 -0.0485
-0.0089 -0.0484 -0.2027
-0.0087 -0.0250 -0.1460
-0.0136 0.0111 -0.1363
-0.0300 -0.0189 -0.1743
-0.0226 -0.0797 -0.1941
0.0304 -0.0240 -0.1612
0.0249 -0.0239 -0.1563
0.0053 0.0071 -0.1474
0.0061 -0.0167 -0.1893
-0.0251 0.0140 -0.1675
-0.0111 0.0361 -0.1594
-0.0119 0.0360 -0.1588
-0.0009 0.0140 -0.1596
-0.0172 0.0123 -0.1527
-0.0036 0.0402 -0.1544
-0.0271 0.0145 -0.1456
0.0148 0.0268 -0.1585
-0.0231 0.0157 -0.1493
-0.0103 0.0128 -0.1430
0.0029 0.0115 -0.1820
-0.0277 0.0350 -0.1517
0.0331 -0.1288 -0.1228
-0.0240 0.0146 -0.1533
0.0011 0.0150 -0.1564
0.3796 -0.6340 -0.0997
0.1245 -0.0061 -0.0417
-0.0046 -0.0546 -0.1915
0.1200 -0.6013 -0.3197
-0.0326 -0.6298 -0.2341
0.1533 -0.1773 -0.1882
0.2442 -0.6424 -0.1826
0.2271 -0.6512 -0.1527
-0.0244 0.0409 -0.1440
-0.0216 0.0398 -0.1539
-0.0172 0.0439 -0.1566
-0.0240 0.0432 -0.1542
-0.0213 0.0448 -0.1511
-0.0224 0.0435 -0.1545
-0.0228 0.0433 -0.1544
-0.0218 0.0436 -0.1542
-0.0215 0.0434 -0.1547
-0.0252 0.0456 -0.1510
-0.0175 0.0434 -0.1589
-0.0223 -0.0266 -0.1449
-0.0280 -0.0022 -0.1683
-0.0268 0.0283 -0.1562
-0.0131 0.0412 -0.1535
0.0246 -0.0197 -0.1734
-0.0171 0.0357 -0.1489
-0.0235 0.0406 -0.1535
-0.0179 0.0345 -0.1516
0.0061 -0.0049 -0.1385
-0.0209 0.0337 -0.1511
-0.0153 0.0412 -0.1507
0.4208 -0.6376 -0.0271
0.3601 -0.1695 -0.1123
0.0852 -0.6228 -0.2429
-0.0245 0.0294 -0.1463
-0.0240 0.0049 -0.1435
-0.0239 0.0170 -0.1429
-0.0021 -0.0097 -0.1626
-0.0107 0.0175 -0.1658
-0.0219 0.0426 -0.1441
0.0087 -0.0072 -0.1783
-0.0268 0.0364 -0.1419
-0.0276 0.0168 -0.1490
-0.0218 0.0166 -0.1511
0.0084 -0.6122 0.0147
0.3456 -0.6405 -0.3602
-0.0276 -0.0072 -0.1460
0.0454 -0.0482 -0.2203
-0.0163 0.0158 -0.1350
-0.0199 0.0390 -0.1419
-0.0166 -0.0396 -0.1774
0.0048 -0.0002 -0.1780
-0.0170 0.0380 -0.1420
-0.0058 0.0215 -0.1382
-0.0162 0.0408 -0.1460
-0.0118 -0.0003 -0.1277
-0.0210 0.0207 -0.1492
-0.0174 0.0002 -0.1484
0.0677 -0.2353 -0.1107
0.2969 -0.3690 -0.3288
-0.0070 0.0128 -0.1422
-0.0077 0.0152 -0.1640
0.0021 -0.0308 -0.1291
-0.0194 -0.0094 -0.1368
0.0318 -0.0287 -0.1428
-0.0050 0.0267 -0.1432
-0.0165 -0.0193 -0.1512
-0.0268 -0.0325 -0.1455
0.0533 -0.0375 -0.1405
-0.0003 0.0131 -0.1369
-0.0172 -0.0161 -0.1194
-0.0209 0.0217 -0.1470
-0.0072 -0.0190 -0.1236
-0.0045 -0.0181 -0.1242
0.0201 -0.0138 -0.1316
0.0204 -0.0174 -0.1780
-0.0042 0.0241 -0.1385
-0.0156 0.0333 -0.1350
-0.0122 0.0110 -0.1278
-0.0254 0.0363 -0.1392
-0.0072 0.0218 -0.1348
-0.0105 0.0253 -0.1466
-0.0163 0.0293 -0.1340
-0.0179 0.0361 -0.1396
-0.0010 0.0224 -0.1505
-0.0098 -0.0372 -0.1811
-0.0244 0.0120 -0.1371
-0.0253 0.0125 -0.1352
-0.0125 0.0113 -0.1369
-0.0122 0.0320 -0.1454
-0.0263 0.0068 -0.1425
-0.0267 0.0448 -0.1352
-0.0253 0.0432 -0.1333
-0.0281 0.0384 -0.1375
-0.0221 0.0401 -0.1397
-0.0256 0.0413 -0.1353
-0.0253 0.0318 -0.1321
0.0351 -0.0116 -0.1382
-0.0233 0.0462 -0.1494
-0.0221 0.0384 -0.1566
0.0202 -0.0172 -0.1249
0.0074 -0.0109 -0.1488
-0.0029 0.0105 -0.1612
-0.0152 0.0252 -0.1476
-0.0035 0.0259 -0.1333
-0.0234 0.0381 -0.1312
-0.0195 0.0384 -0.1372
-0.0240 0.0366 -0.1371
-0.0195 0.0406 -0.1388
-0.0256 0.0427 -0.1333
-0.0244 0.0329 -0.1320
-0.0247 0.0361 -0.1301
-0.0204 0.0402 -0.1355
-0.0263 0.0360 -0.1384
-0.0257 0.0427 -0.1334
-0.0189 0.0392 -0.1352
-0.0261 0.0369 -0.1334
-0.0142 0.0129 -0.1534
-0.0159 0.0332 -0.1413
0.0241 -0.0246 -0.1758
-0.0293 0.0436 -0.1454
-0.0030 -0.0133 -0.1265
-0.0111 0.0175 -0.1570
-0.0059 0.0215 -0.1491
0.0024 -0.0025 -0.1474
-0.0224 0.0026 -0.1434
-0.0074 0.0199 -0.1277
-0.0259 0.0370 -0.1384
-0.0111 -0.0621 -0.1893
-0.0146 0.0150 -0.1357
-0.0273 0.0360 -0.1398
0.0031 0.0176 -0.1337
-0.0200 0.0175 -0.1242
-0.0007 0.0184 -0.1314
-0.0213 0.0199 -0.1311
