0.0061 -1.2024 0.2499
0.2791 -1.1463 -0.0251
-0.2712 -1.1918 -0.3591
0.0940 -1.1822 0.3625
-0.2536 -1.0847 -0.3607
0.3919 -1.2059 -0.1070
-0.0131 -1.0503 0.3502
0.2303 -1.1405 -0.3755
0.4562 -1.1930 -0.6231
0.1078 -1.1049 -0.4282
0.0902 -1.1817 -0.2187
-0.0177 -1.2211 -0.7406
0.2096 -1.1425 -0.1338
0.3036 -1.1829 -0.5886
0.1124 -0.5491 -0.2873
0.5630 -1.1850 -0.0894
0.4771 -1.0197 -0.1279
0.6321 -1.0238 -0.2796
0.6088 -1.1247 -0.2078
0.1252 -1.1241 0.3553
-0.0088 -1.0195 0.2936
0.3398 -1.1588 0.1868
0.1739 -0.9289 -0.6314
0.0725 -0.5878 0.2830
0.5963 -1.2103 -0.0908
-0.3144 -1.0957 -0.4266
0.6091 -1.1749 -0.2271
-0.2470 -1.1891 -0.3984
0.1722 -1.0976 -0.7869
0.1844 -0.9910 0.3207
0.7005 -1.0643 -0.3622
-0.3149 -1.1536 -0.4809
0.2295 -1.1568 0.0890
0.2264 -1.0842 0.0535
0.5677 -1.1062 -0.1143
-0.0286 -1.0464 0.3126
-0.5294 -1.2487 -0.3236
-0.2722 -1.1894 -0.4569
0.2320 -1.1231 0.1923
0.0087 -1.1691 0.2625
0.0762 -1.1307 -0.6651
0.3566 -1.1365 -0.5321
0.3147 -1.1736 -0.6178
0.3345 -1.0962 -0.0815
-0.2722 -0.4865 -0.0040
0.1655 -0.6203 0.0984
0.0978 -1.1264 -0.3166
-0.0207 -1.0913 0.1540
0.8383 -1.1623 -0.2603
-0.3283 -1.1758 -0.4582
-0.2831 -1.2023 -0.4411
0.5730 -1.3178 -0.0567
0.4763 -1.1767 -0.0380
-0.0450 -1.1262 0.3174
0.0643 -1.1794 0.1752
0.3669 -1.2034 -0.6319
0.2432 -1.1072 -0.1488
0.5016 -1.1810 -0.7187
0.5544 -1.2054 -0.4980
0.6296 -1.0307 -0.4810
-0.1696 -1.1855 -0.2621
0.1523 -1.0530 -0.7768
-0.3211 -1.1301 -0.4345
0.7146 -1.1922 -0.3515
-0.5408 -1.1908 -0.3095
-0.3096 -1.1340 -0.4199
0.3341 -1.1948 -0.6413
-0.1722 -1.1852 -0.2185
0.2974 -1.1234 -0.0873
0.3301 -1.1509 -0.0585
-0.2039 -1.1637 -0.1185
0.5905 -1.2047 -0.7583
-0.2308 -1.1033 -0.0544
0.9481 -1.1886 -0.2815
-0.2483 -1.2535 -0.4594
-0.4562 -1.2715 -0.3412
0.1856 -0.5295 -0.4952
-0.2106 -1.1369 -0.4365
-0.2505 -1.1296 0.0018
-0.3888 -1.2166 -0.4961
-0.5219 -1.1397 -0.3482
0.5136 -1.1696 -0.9595
-0.3663 -0.9711 -0.3004
-0.1438 -1.0986 -0.1733
-0.2999 -1.2076 -0.4364
0.1548 -1.2090 -0.8326
-0.3081 -1.2168 -0.3501
-0.2344 -1.1182 -0.3716
0.5030 -1.1269 -0.9717
0.3566 -1.2180 0.2120
0.6514 -1.1431 -0.0420
0.5572 -1.1904 0.0334
0.9173 -1.1072 -0.2877
0.2244 -1.2222 -0.5124
-0.2479 -1.0575 -0.0940
0.0671 -1.1941 -0.3090
0.6673 -1.0896 -0.7479
0.6816 -1.2424 -0.7913
0.6572 -1.1592 -0.7389
0.1991 -1.1867 0.0941
0.3231 -1.2003 -0.0013
-0.2194 -1.1427 -0.0051
0.8968 -1.1658 -0.4645
0.8156 -1.1865 -0.7094
0.2815 -1.1905 -0.0304
0.7685 -1.1931 -0.6618
0.8170 -1.1895 -0.6691
0.2979 -1.1843 -0.1773
-0.3090 -1.1261 -0.4061
-0.3895 -1.2109 -0.2943
-0.3654 -1.1922 -0.3130
-0.0303 -1.1317 -0.3669
0.9470 -1.1796 -0.4512
0.2937 -1.0387 -0.0531
0.9581 -1.1844 -0.3710
0.7478 -1.1279 -0.6568
0.7861 -1.0964 -0.7094
-0.5654 -1.1812 -0.3534
0.1439 -1.2176 -0.4919
0.5758 -1.1829 -0.0910
0.0353 -1.1253 0.1525
-0.3575 -0.7465 -0.2869
-0.2169 -1.0775 -0.0427
-0.1885 -1.1790 -0.0650
0.9004 -1.1930 -0.2515
-0.1506 -1.2402 -0.1368
-0.2981 -1.1696 -0.0283
-0.2710 -1.0770 -0.4342
-0.5374 -1.2009 -0.2697
-0.4778 -1.0864 -0.2909
0.2340 -1.1947 -0.1849
0.9866 -1.1908 -0.6519
-0.2999 -1.2292 -0.3739
0.8130 -1.2119 -0.4030
-0.5909 -1.2245 -0.2565
-0.2536 -1.1246 -0.0659
-0.5032 -1.2215 -0.3752
-0.2764 -1.2242 -0.3170
0.3562 -1.2152 -0.5467
-0.2399 -1.1607 -0.0849
-0.0539 -1.2125 -0.7184
-0.3453 -1.2304 -0.1948
0.2575 -1.1818 0.0387
0.5413 -1.2069 -0.7572
0.6305 -1.1914 -0.2264
-0.2885 -1.2590 -0.3438
0.0009 -1.3034 -0.8343
0.3210 -1.1881 0.1053
-0.5110 -1.2174 -0.4267
0.5703 -1.2184 -1.1613
0.1111 -1.1724 -0.4805
-0.3501 -1.2663 -0.1249
0.7585 -1.0592 -0.6970
-0.2052 -1.1482 0.0287
-0.0085 -1.2061 0.1349
1.2495 -1.3170 -0.4583
-0.2388 -1.1001 0.0465
0.2303 -1.2384 -0.1421
-0.6193 -1.1767 -0.3708
-0.6374 -1.1647 -0.3549
-0.5744 -1.1542 -0.3604
-0.5999 -1.1716 -0.3435
0.7005 -1.1872 -0.3221
0.0124 -1.1602 -0.6611
0.2212 -1.1518 -0.5111
0.0991 -1.2199 -0.4678
0.4858 -1.1952 -0.9283
0.5525 -1.1905 -0.9287
0.2325 -1.1983 -0.2101
-0.5093 -1.1284 -0.4161
-0.4403 -1.2197 -0.3168
0.7251 -1.2096 -0.8082
-0.1059 -1.2137 -0.0081
0.3314 -1.2124 -0.2296
-0.0401 -1.1715 0.1600
0.3737 -1.1986 -0.0814
-0.2613 -1.0296 -0.0364
-0.7140 -1.1451 -0.3274
-0.6803 -1.1722 -0.2557
-0.6715 -1.1446 -0.3317
0.7772 -1.0998 -0.6729
-0.1791 -1.1185 -0.2108
-0.6335 -1.1535 -0.2661
-0.0584 -1.2279 -0.7466
0.5302 -1.2311 -0.0199
0.4269 -1.0704 -0.1778
-0.6486 -1.1708 -0.3753
-0.3856 -1.1029 -0.5200
0.0100 -1.0955 -0.4406
0.8928 -1.2215 -0.2173
0.5116 -1.2071 -0.4510
-0.4954 -1.1910 -0.0184
-0.0586 -1.2184 -0.3859
-0.0787 -1.1637 -0.3331
-0.4082 -0.7253 -0.2555
-0.4390 -1.2132 -0.0198
0.2202 -1.1931 -0.3851
0.4199 -1.1895 -0.5650
0.2836 -1.1591 -0.7166
0.2079 -1.2482 -0.6250
0.1525 -1.1314 -0.5298
-0.3510 -1.0291 -0.0156
-0.3194 -1.1156 -0.0451
0.5110 -1.1928 -0.2077
-0.3806 -0.5543 -0.2937
-0.2526 -1.1193 0.0818
-0.3699 -0.9690 -0.5026
-0.2648 -1.1182 -0.3653
-0.2070 -1.1655 -0.2884
0.1272 -1.0774 -0.1507
0.1586 -1.1212 -0.1756
-0.2256 -1.0985 -0.0525
-0.2242 -1.0212 0.0158
-0.3651 -1.1777 -0.3745
-0.2106 -1.0515 -0.4172
-0.1249 -0.9922 -0.1593
0.1944 -1.0462 -0.0287
0.0119 -1.1447 -0.8475
0.7287 -1.0921 -0.6951
-0.5438 -1.1526 -0.3267
-0.6204 -1.1257 -0.2134
0.2873 -1.1908 0.1317
0.4780 -1.0781 -0.9395
0.4911 -1.1527 -0.9434
-0.4448 -1.1840 -0.0395
0.7632 -1.1614 -0.4104
0.7367 -1.1435 -0.7396
-0.1631 -1.0732 -0.7845
0.1586 -1.2038 -0.9653
0.2874 -1.0773 -0.1238
0.1711 -1.3222 0.0601
-0.0315 -0.1810 -0.2570
0.4693 -1.1795 0.1798
0.4290 -1.1180 -0.4931
0.4245 -1.0168 -0.2050
0.2966 -1.1751 -0.0809
0.0107 -1.0553 -0.0788
-0.0564 -0.4854 0.0046
-0.0478 -0.0801 -0.2902
-0.2705 -1.1677 -0.3285
-0.2817 -1.2479 -0.2558
0.3198 -1.1484 -0.5185
0.1770 -1.1533 -0.4899
-0.1781 -1.1332 -0.2627
0.0879 -1.0344 -0.4620
-0.0136 -0.1322 -0.3461
0.7386 -1.1636 -0.3736
-0.0484 -0.3688 -0.1380
-0.0864 -0.3027 -0.1453
-0.1083 -1.2667 0.1751
-0.0956 -0.3377 -0.1524
-0.2425 -0.7213 -0.4042
0.9494 -1.0911 -0.3079
0.0226 -1.2790 -0.2955
-0.3175 -1.2455 -0.3620
-0.1355 -1.1150 -0.3070
-0.0505 -0.5266 0.0272
-0.4261 -1.0973 -0.5087
0.0241 -1.1794 -0.4786
0.7662 -1.2218 -0.6812
0.6737 -1.1647 -0.2984
0.8999 -1.2319 -0.2570
-0.1725 -1.2083 -0.1893
-0.3362 -1.2326 -0.1161
0.2201 -1.1987 -0.5555
-0.3411 -1.2163 -0.4176
0.2945 -1.2583 -0.7590
0.3718 -1.1964 -0.5770
0.1758 -1.1603 -0.0530
-0.1094 -0.8269 0.1643
0.0185 -1.1229 0.0506
0.1627 -1.1541 -0.0690
-0.2354 -1.0177 0.0387
-0.4686 -0.9893 -0.2638
-0.2203 -1.1658 -0.1069
0.1998 -1.2271 -0.7352
-0.2291 -1.2457 -0.3285
0.4231 -1.1450 -0.9015
0.2500 -1.1521 -0.0367
0.4702 -1.0663 -0.4676
0.3527 -1.1981 -0.3608
0.4597 -1.3549 -0.9156
0.2936 -1.1640 -0.2356
0.2264 -1.2217 -0.2235
0.4758 -1.2441 -1.1213
0.4970 -1.0451 -0.1316
-0.1692 -1.2617 -0.1243
-0.1701 -1.2406 -0.1622
0.3177 -1.1921 -0.6450
0.7601 -0.8234 -0.4430
0.3295 -1.1742 0.1914
0.1603 -1.2253 -0.5597
0.7900 -1.1523 -0.3459
-0.1810 -1.1568 0.1541
0.5690 -1.1601 -0.2359
-0.0905 -1.1024 0.1862
0.0540 -1.1399 0.0840
0.7415 -1.1439 -0.6761
-0.2671 -1.1236 -0.0162
-0.2891 -1.1362 -0.0166
0.7313 -1.1911 -1.0263
0.4255 -1.1984 -0.5119
0.3164 -1.1856 -0.1209
0.9046 -0.9751 -0.4209
0.1526 -0.9143 -0.0889
0.0130 -1.0599 0.0104
-0.1259 -1.0340 0.1572
-0.0585 -0.8991 0.0283
-0.1052 -1.0756 0.2230
0.9393 -1.1801 -0.6537
0.9528 -1.1083 -0.4921
-0.2226 -1.0387 -0.0404
0.5318 -1.1263 -0.1022
0.1121 -1.1326 -0.4865
-0.0711 -1.1220 0.0636
-0.3234 -1.0961 -0.4316
-0.2367 -1.0913 -0.1083
0.0236 -1.1719 0.2103
0.4800 -1.1343 -0.9637
-0.0469 -0.9493 0.1664
-0.1924 -1.0271 -0.2785
0.2847 -1.0640 -0.2048
0.1316 -1.2359 -0.5736
0.2385 -1.2078 0.2027
0.3071 -1.1278 -0.0467
0.0615 -1.0994 -0.7630
-0.1889 -1.1170 -0.0085
0.7442 -1.1508 -0.4275
0.6859 -1.1374 -0.4229
0.7322 -1.1932 -0.4027
1.0264 -0.9065 -0.3482
0.9057 -1.1435 -0.8121
0.1887 -1.2120 -0.1438
0.2584 -1.1913 -0.1490
0.0402 -1.2417 -0.3691
-0.1122 -1.0182 0.1923
-0.0411 -0.7358 0.0586
0.5045 -1.0942 -0.1066
0.4447 -1.1077 -0.0763
0.4159 -1.1822 -0.6239
-0.4303 -0.8797 -0.3237
0.0384 -0.8711 0.0771
0.6077 -1.1887 -0.7720
0.3261 -1.1504 -0.0403
0.1201 -0.1787 -0.3373
0.0932 -0.0806 -0.3039
0.0283 -0.1765 -0.3260
0.1742 -0.2064 -0.2937
0.1643 -0.1605 -0.3408
-0.0040 -0.8248 0.0481
-0.2357 -1.0120 -0.1026
-0.1880 -1.1271 -0.2107
-0.2151 -1.0914 0.0248
-0.2941 -1.1145 -0.4127
-0.2926 -1.1205 -0.4468
0.3414 -1.0704 -0.1275
-0.2569 -1.1542 -0.3264
-0.3022 -1.0831 -0.4436
-0.3025 -1.0926 -0.0049
-0.0884 -0.5471 0.0129
-0.1352 -1.0183 0.2552
-0.3911 -1.1495 -0.1222
0.1909 -1.0512 -0.1608
0.1793 -1.1263 -0.1487
0.0966 -1.0880 -0.4667
0.1018 -1.1341 -0.4684
-0.5273 -1.0827 -0.3245
0.0267 -1.0635 -0.4545
0.1569 -1.0302 -0.4709
0.1508 -1.0362 -0.0859
-0.0488 -0.2820 -0.1801
0.0895 -0.1791 -0.3141
0.4904 -1.0887 -0.9464
0.0426 -1.0939 -0.6646
0.2848 -1.0537 -0.5970
0.0496 -0.9956 0.0443
0.4887 -1.0551 -0.1089
0.0314 -1.1255 0.3638
0.2918 -1.0939 -0.1324
-0.4129 -0.9720 -0.4285
0.0503 -1.1345 -0.5431
0.2790 -1.2849 -0.5834
0.2307 -1.1564 0.1874
-0.2757 -1.0757 -0.0280
0.1002 -0.9691 -0.4381
-0.2778 -1.1374 -0.4189
-0.0544 -1.0959 -0.3689
0.2977 -1.0522 -0.0536
-0.4837 -1.0201 -0.4139
0.4199 -1.0870 -0.8951
-0.3006 -1.0988 -0.4173
0.2722 -1.1291 0.1127
-0.4591 -1.1214 -0.4773
-0.2522 -1.0046 0.0429
-0.2407 -1.0602 0.0425
0.1633 -1.1494 -0.0678
0.7397 -1.1033 -0.6826
-0.5328 -1.0600 -0.3372
-0.5323 -1.1304 -0.3473
-0.2420 -1.0149 0.0395
0.6180 -1.1703 -0.7533
-0.0707 -1.0888 0.0478
0.4916 -1.1196 -0.4783
0.1685 -1.1487 -0.4699
0.0262 -1.0920 -0.5625
0.0159 -1.0311 0.0594
0.0983 -1.1488 -0.4786
-0.2458 -1.1105 -0.0392
-0.0219 -0.9089 0.0337
0.7377 -1.1249 -0.3975
0.7221 -1.1127 -0.6597
0.1332 -1.1184 -0.0762
0.1449 -1.1973 -0.1436
0.2062 -1.1489 -0.2327
-0.0071 -0.9282 0.0560
-0.3806 -1.1448 0.0012
-0.5136 -1.0815 -0.2960
0.1494 -1.1725 -0.6103
0.0282 -1.1827 -0.4789
0.1868 -1.1337 -0.0387
0.1888 -1.1268 -0.0166
-0.2604 -1.0462 0.0197
-0.2941 -1.1561 -0.2836
0.9293 -1.1892 -0.3740
-0.3097 -1.1015 -0.4073
0.4502 -1.1420 -0.1707
-0.0548 -0.5549 -0.0086
-0.1279 -0.5678 0.0014
-0.4326 -1.2047 -0.0291
-0.0751 -0.4632 -0.0054
-0.0634 -0.6316 0.0096
-0.0694 -0.6554 0.0116
0.7986 -1.1513 -0.7310
0.8393 -1.2024 -0.7636
0.4571 -0.9624 -0.8628
0.4442 -0.7700 -0.5957
0.5557 -0.9201 -0.8608
0.6801 -1.0762 -0.8653
0.1922 -1.1358 -0.4925
0.7348 -1.1513 -0.3695
0.8186 -1.1678 0.0134
0.0884 -1.0325 -0.4702
0.7662 -1.1145 -0.3446
1.2144 -1.0685 -0.4258
0.5837 -0.7439 -0.7409
0.0977 -0.3973 -0.1426
0.5070 -0.5588 -0.4309
0.7087 -1.0037 -0.9116
0.7215 -0.9923 -0.8318
1.4160 -1.2008 -0.6446
1.2543 -1.1760 0.0715
0.6815 -1.0295 -0.7156
0.3348 -1.1194 -0.3566
0.2074 -1.1130 -0.5149
0.6689 -1.1547 -0.3275
0.6412 -1.1051 -0.4516
0.8567 -1.0343 -0.1083
0.5397 -1.1907 0.1743
0.4264 -1.2032 -0.0190
0.1974 -1.1088 -0.1613
0.7022 -1.1081 -0.7360
0.7048 -1.1644 -0.7830
0.6761 -1.1455 -0.7513
0.5919 -1.1592 -0.2263
-0.0855 -1.2029 -0.2826
0.4220 -1.1071 -0.3643
0.6014 -1.0943 -0.3938
0.5472 -1.1029 0.0058
1.2414 -1.0529 -0.3782
1.2326 -0.8520 -0.0930
1.3576 -1.1017 -0.1998
1.3782 -0.9506 -0.1309
1.2243 -0.8878 -0.1427
1.2421 -1.0100 -0.2496
1.1825 -1.0833 -0.0940
1.2203 -1.0018 -0.1991
0.4899 -1.1737 -0.4552
0.2208 -1.1897 -0.1810
0.1877 -1.1860 -0.1420
0.8058 -1.1392 0.2587
0.7439 -1.1550 0.1709
0.1017 -1.0381 0.1554
1.3558 -1.1944 -0.5136
0.2127 -1.1832 -0.2307
0.1634 -1.1436 -0.3055
1.3090 -1.0117 -0.0619
0.0663 -1.1208 -0.0135
0.8572 -1.2068 -0.2584
0.0804 -1.1248 0.0847
0.2220 -1.2286 -0.5351
0.2046 -1.2176 -0.5124
1.3494 -1.1177 -0.4709
1.3134 -0.9672 -0.4117
1.4102 -1.2352 -0.0159
0.6212 -1.1993 -0.7726
0.4292 -1.2173 -0.6257
0.3769 -1.2090 -0.5700
1.0689 -1.2106 -0.8907
0.0878 -1.0461 0.0054
0.3887 -1.2383 -0.0136
1.3239 -1.1269 -0.5470
1.2570 -0.9382 -0.3885
1.2625 -1.1786 -0.3106
1.2496 -1.1332 -0.3589
0.8796 -1.2000 -0.2597
1.3578 -0.8488 -0.3203
1.2202 -0.9736 -0.1891
0.9542 -1.1690 0.0829
0.6142 -1.2144 0.2306
1.2941 -1.0647 -0.1975
0.3365 -1.1891 0.2941
1.1566 -1.2076 -0.0710
1.2850 -1.0256 -0.2279
1.2777 -0.9892 -0.2622
1.3602 -0.9302 -0.3344
1.1527 -1.1650 -0.1238
0.9620 -1.2011 -0.0971
1.2965 -1.0550 -0.3517
1.3222 -1.0199 -0.3715
1.3125 -0.9860 -0.3985
1.2613 -1.1809 -0.3155
1.2392 -1.1358 -0.3335
1.2222 -1.2016 -0.3304
0.9047 -1.1695 -0.2900
0.3269 -1.1736 -0.0434
0.1461 -1.0654 -0.0192
0.3189 -1.1584 -0.0744
0.0834 -1.1791 -0.4601
1.2029 -1.2167 -0.6570
0.2924 -1.2100 -0.1808
0.2118 -1.2232 -0.1407
0.7264 -1.2097 -0.4361
1.4056 -1.2472 -0.8950
0.7566 -1.1571 -0.6816
0.8068 -1.1201 -0.7191
1.1600 -1.2121 -0.9277
1.1060 -1.1150 -0.9086
1.1480 -1.1224 -0.9321
1.1870 -1.1729 -0.9800
1.1566 -1.1842 -1.0075
0.7120 -1.2076 0.0933
0.9563 -1.1652 -0.0808
0.8794 -1.2401 0.1462
0.5317 -1.2021 -0.4661
0.2389 -1.1967 0.1963
0.2915 -1.1973 0.1316
0.9459 -1.2017 0.1333
0.9725 -1.2191 -0.3014
0.1501 -1.0552 0.0422
0.1597 -1.1823 -0.1142
1.1396 -1.1901 0.0830
1.4719 -1.2649 -0.7926
0.7920 -1.2247 -0.3154
0.2930 -1.2520 -0.6159
1.2635 -1.1916 -0.2768
0.7912 -1.2277 0.0247
0.6451 -1.2056 0.0925
1.2712 -1.0064 -0.2759
1.0734 -0.9745 -0.5662
1.2375 -0.9792 -0.2734
0.3999 -1.1970 0.2365
1.2186 -0.8098 -0.1730
1.1797 -1.2048 -0.0748
1.3164 -1.0368 -0.2144
1.4110 -0.9607 -0.3106
1.1467 -1.2076 -0.0936
1.3054 -1.0728 -0.2473
0.9669 -1.1809 -0.1271
1.3175 -1.1799 -0.2875
1.3433 -1.0699 -0.4131
1.3823 -1.0530 -0.5108
0.5737 -1.2033 -0.0968
0.1564 -1.1286 0.0167
0.2139 -1.2361 -0.2288
0.8036 -1.2280 -0.6815
0.8706 -1.2177 -0.2309
0.5540 -1.1759 -0.0023
0.3814 -1.1958 -0.1162
0.6085 -1.1868 0.2486
0.3285 -1.1644 0.3006
0.4773 -1.2214 -0.7334
0.5829 -1.2013 0.0547
1.3431 -1.1984 -0.8814
0.6886 -1.1924 0.1134
0.1894 -1.2173 -0.1416
0.1416 -1.2033 -0.1480
1.0471 -1.2059 -0.7165
0.4164 -1.1600 -0.2138
0.3394 -1.1925 -0.0458
0.9621 -1.2183 -0.0344
1.2630 -0.9598 -0.2344
1.3221 -0.9560 -0.0796
0.1723 -1.1505 -0.4981
0.5209 -1.1006 0.2121
1.2408 -1.2123 -0.0859
0.3934 -1.2382 0.4153
1.3352 -0.9326 -0.1139
1.3567 -0.9849 -0.1230
0.3425 -1.1919 0.2757
1.2948 -1.0267 -0.1267
1.3557 -0.8832 -0.2420
0.5643 -1.1902 -0.1218
0.5909 -1.1963 -0.2343
0.1278 -1.1898 -0.4797
0.9728 -1.1845 0.1538
0.8245 -1.1995 0.1871
0.5665 -1.2091 0.2623
0.5910 -1.2136 0.2265
0.6170 -1.1768 0.1901
0.2281 -1.1944 0.3033
1.0012 -1.1855 -0.1575
0.8069 -1.2061 -0.4959
1.1161 -1.2116 -0.8671
0.3662 -1.1946 -0.0962
0.5566 -1.1633 0.0106
0.6885 -1.1670 -0.7943
0.5124 -1.1448 -0.6278
0.6233 -1.1911 -0.6009
1.3509 -0.9640 -0.3079
1.3922 -1.0042 -0.0697
0.7866 -1.1263 -0.6858
0.3482 -1.1553 0.2112
0.9397 -1.1874 -0.4557
1.1792 -1.1857 -0.0633
0.2426 -1.1883 0.1931
0.4795 -1.1839 -0.5531
1.0400 -1.2305 -0.7935
0.9069 -1.2202 -0.4799
0.1524 -1.1879 -0.5887
0.8226 -1.2102 -0.5175
0.8060 -1.1981 0.1841
0.4775 -1.1842 -0.0663
0.6188 -1.1676 -0.7596
0.9164 -1.2147 -0.6264
0.1626 -1.0244 -0.0257
1.3666 -1.0080 -0.3779
0.9274 -1.2007 -0.2912
0.0659 -1.1617 -0.5534
0.7201 -1.2019 -0.4344
0.3675 -1.1874 0.2085
0.7147 -1.1991 0.1139
1.3411 -0.9155 -0.1428
0.3766 -1.1823 -0.0087
0.4598 -1.1925 -0.0614
1.4372 -1.2511 -0.6685
0.1804 -1.1726 0.1589
0.5702 -1.1888 0.0373
0.3535 -1.1932 0.2952
0.6528 -1.1995 0.2022
0.2072 -1.1831 0.2639
0.6441 -1.1796 0.1576
0.7804 -1.2360 -0.7101
0.7400 -1.1961 -0.4034
1.3624 -1.2114 -0.5751
1.2774 -1.1903 -0.4236
1.2826 -1.1903 0.0749
1.1317 -1.1325 0.0938
0.6430 -1.2084 -0.6956
1.3056 -0.9719 -0.3905
0.6274 -1.2171 0.2028
0.4953 -1.2643 -0.3537
0.4305 -1.1881 -0.0240
0.7932 -1.2121 0.0667
0.1300 -1.1941 0.3402
0.7862 -1.2077 0.0434
0.1914 -1.1899 0.0912
1.3079 -1.0217 -0.2305
1.2956 -1.0642 -0.2007
0.4279 -1.1914 -0.0211
0.3025 -1.1760 0.0311
1.4343 -1.2536 0.0220
0.2659 -1.1928 -0.1511
0.7881 -1.1906 -0.4117
0.3512 -1.2023 0.3329
0.9424 -1.1975 0.3008
0.2801 -1.2273 0.1381
0.9368 -1.1816 0.1285
0.5685 -1.1901 0.0187
0.6408 -1.2133 0.0195
0.7997 -1.2134 -0.4219
0.4686 -1.1930 -0.0240
0.1058 -1.2095 -0.0290
0.1932 -1.2393 -0.0219
0.2220 -1.2169 -0.0330
1.2965 -1.0675 -0.2509
0.3936 -1.1357 -0.2302
0.8791 -1.1766 0.3311
0.3886 -1.1710 -0.5723
0.3384 -1.1844 -0.2215
0.9606 -1.2332 -0.0381
0.4820 -1.1866 0.1365
1.1622 -1.2292 -0.8839
1.2897 -1.1974 -0.6271
1.4325 -1.0623 -0.4879
0.0987 -1.2148 -0.4804
0.3973 -1.1917 0.3802
1.1717 -0.9531 -0.3387
0.3654 -1.1940 0.3435
0.4590 -1.1228 -0.2641
0.6068 -1.2166 0.2586
0.5655 -1.2090 -0.1430
0.5364 -1.2021 -0.1255
0.5505 -1.2253 0.1879
0.6917 -0.8340 0.0707
0.6898 -1.1965 0.1128
0.7180 -1.1726 0.1041
0.3763 -1.2148 -0.0010
0.5263 -1.1886 0.4034
0.6940 -1.2418 0.4271
0.5392 -1.1742 -0.3395
1.0964 -1.1745 -0.1979
1.2983 -1.2138 -0.0700
0.4561 -1.2029 -0.0604
0.7677 -1.1920 0.0632
0.5377 -1.0949 0.2679
0.5195 -1.2087 0.3779
0.4083 -1.1315 -0.2428
1.2488 -1.1341 -0.3117
0.6071 -1.2219 0.2294
1.2693 -0.9583 -0.2316
1.3528 -0.8855 -0.1402
0.9790 -1.1507 -0.2901
1.3686 -0.9812 -0.1007
1.3478 -1.1186 -0.1342
0.8813 -1.1882 -0.2607
0.6630 -1.1871 -0.3237
1.0880 -1.1741 -0.0193
0.8280 -1.2004 0.1551
0.9584 -1.2380 -0.3917
1.2833 -0.9277 -0.1511
0.9659 -1.1923 -0.1023
0.6394 -1.2424 -0.1048
0.8583 -1.1688 0.3909
0.6774 -1.0657 0.2758
0.8083 -1.1587 -0.4882
0.4838 -1.1996 0.2592
0.5828 -1.1366 0.1797
1.3284 -1.0464 -0.0952
0.3101 -1.1908 -0.0676
0.8603 -1.2154 -0.2582
1.2392 -1.1417 0.0464
0.5717 -1.2132 0.2404
0.4198 -1.1855 0.2813
0.6128 -0.8603 -0.0221
0.7082 -1.1581 0.0792
1.1643 -1.2427 -0.0718
0.6097 -1.2324 -0.2752
0.9792 -1.3251 -0.0996
0.7873 -1.2457 0.0485
0.5902 -1.1982 0.3405
0.5514 -1.2478 0.2643
0.5100 -1.3139 -0.1283
0.5824 -1.1987 -0.0059
0.6561 -1.1757 0.1945
1.0853 -1.1461 -0.1930
0.9868 -1.2548 -0.0714
1.1528 -1.3058 -0.1084
1.0336 -1.0885 -0.0752
1.3386 -1.3440 0.0977
0.7626 -1.1714 -0.3730
0.6833 -1.2195 0.1201
0.5883 -1.2784 0.0698
0.4464 -1.3111 0.0932
0.4804 -1.1596 0.1298
1.3531 -1.1959 -0.2629
1.2867 -1.2314 -0.1155
1.4872 -1.0932 -0.2605
0.7733 -1.1779 0.4940
0.8398 -1.2016 0.2830
0.6368 -1.2549 0.0201
0.7696 -1.1069 0.1526
0.7832 -1.1922 0.3920
1.3081 -1.2849 -0.3626
0.9882 -1.5181 -0.3969
0.6427 -1.2365 0.1707
0.6032 -1.2216 0.2245
0.5635 -1.3153 0.2572
0.8150 -1.3487 0.5877
1.2004 -0.8872 -0.0621
0.6017 -1.2779 -0.2403
1.2990 -0.4420 0.0137
1.5362 -0.4891 0.1063
0.5953 -1.2894 0.2709
0.8095 -1.2275 0.4442
0.6615 -1.3890 0.4966
1.0283 -0.4779 0.3714
0.9023 -1.3406 0.6419
1.1632 -0.4801 0.2156
1.3531 -0.4627 -0.0270
1.4758 -0.4721 0.1436
1.7244 -0.5129 0.4746
1.3131 -0.4790 0.3348
1.2832 -0.5116 0.3813
1.2300 -0.5038 0.4377
1.2776 -0.5061 0.5192
1.2299 -0.4951 0.4786
1.3597 -0.4737 0.5877
1.2613 -0.5118 0.5272
1.4270 -0.5272 0.6711
1.1784 -0.4929 0.5169
1.1293 -0.5109 0.5538
1.1381 -0.5096 0.5783
1.0158 -0.5518 0.5293
1.7531 -0.5249 0.4389
1.6580 -0.4937 0.4824
1.6484 -0.5146 0.5541
1.5143 -0.5119 0.6259
1.4769 -0.5100 0.7555
1.0344 -0.5009 0.4833
1.2679 -0.4949 0.7467
1.0872 -1.2756 -0.3537
0.6554 -1.0058 0.1770
1.3826 -0.5388 0.0935
1.4716 -0.4927 0.2291
1.5519 -0.4704 0.3230
1.6895 -0.5124 0.5165
1.5581 -0.5641 0.4955
1.1194 -0.4799 0.2685
1.4181 -0.5270 0.5073
1.4047 -0.5753 0.5244
1.3414 -0.4860 0.5739
1.5521 -0.5410 0.7553
1.5289 -0.5562 0.7670
1.2252 -0.5176 0.8355
1.2340 -0.5013 0.8555
1.1002 -0.4732 0.7249
1.0827 -0.5072 0.7306
1.0260 -0.4782 0.6883
1.3907 -0.5238 0.4691
1.4471 -0.4935 0.2045
1.4607 -0.5385 0.6333
1.0541 -0.5246 0.3548
1.1879 -0.5152 0.8113
1.0118 -0.4910 0.6587
1.4777 -0.4735 0.2086
1.4027 -0.4922 0.1961
1.3679 -0.4755 -0.0154
1.3007 -0.4897 0.3722
1.0484 -0.5154 0.3954
1.1675 -0.4799 0.6801
1.0272 -0.4731 0.6957
0.7985 -0.8207 -0.0389
1.2906 -1.0101 -0.2307
1.7573 -0.6397 1.6904
1.4268 -0.4783 0.3066
1.5075 -0.4482 0.3710
1.2990 -0.4908 0.5866
1.3337 -0.4745 0.1828
2.7411 -0.8185 1.0313
2.3019 -0.8047 1.4114
2.6388 -0.7574 0.9422
1.1390 -0.4668 0.2296
1.0690 -0.4747 0.3545
1.1710 -0.5043 0.5019
1.0474 -0.4709 0.4395
1.3616 -0.5386 0.9782
1.0299 -0.5217 0.7025
1.6118 -0.5500 0.1369
1.1360 -0.3286 0.1341
0.7195 0.2700 -0.0439
0.7268 0.2450 -0.0267

