-0.2757 -1.2875 0.4620
-0.0459 -1.2306 -0.1192
-1.2525 -1.1555 0.6724
0.0609 -1.1237 0.5126
-1.3853 -1.0987 0.0858
-0.6274 -1.2344 0.4138
-0.2177 -0.4717 -0.0812
-0.0335 -0.1088 -0.0023
-0.0320 -0.1919 -0.0381
-0.0754 -0.4490 -0.1123
-0.0910 -1.2025 -0.0991
-0.2836 -1.3093 0.3150
-0.0292 -0.1059 -0.0199
-0.6293 -1.3641 -0.3409
-0.8043 -1.4719 0.7722
-0.3500 -1.3268 0.5000
-0.0770 -0.2370 -0.0539
-0.0180 -0.1779 0.0177
-0.1313 -1.2840 -0.1846
-0.1613 -0.1749 -0.1011
0.1034 -0.8997 0.2042
-0.2712 -1.2947 0.2373
0.0033 -1.2323 0.1803
-0.0276 -1.3736 0.1486
-0.3022 -1.2215 0.4940
0.0049 -0.2248 -0.0432
-0.0744 -0.1501 -0.0408
-0.0592 -0.1607 -0.0762
-0.4451 -1.2583 -0.2115
0.0727 -1.2082 0.5824
-1.0243 -0.8423 0.0346
0.0715 -1.2135 0.5001
-0.0391 -0.6770 0.2758
-0.2776 -1.0846 0.0980
-0.8745 -1.3399 0.7520
-0.2421 -1.3089 -0.0480
0.0140 -1.2980 0.1339
0.0016 -0.2306 0.0025
-0.5985 -1.2649 0.6488
-0.5715 -1.2181 0.7151
-0.1941 -0.1460 0.0317
-0.6605 -1.2106 0.3495
0.0140 -1.1521 0.2424
-0.2411 -1.1613 -0.0741
-1.0024 -1.5152 -0.2281
-1.1373 -1.0274 0.6938
0.0892 -1.1814 0.4813
-0.1896 -1.2191 0.4415
-0.6374 -1.4607 -0.2628
-0.3820 -1.6196 -0.2696
-0.1403 -1.1844 0.4225
-0.6034 -1.2860 -0.1815
-0.3469 -1.0793 0.3780
-0.4100 -1.5108 -0.1664
-0.2191 -1.1707 0.3788
-0.0490 -0.4899 0.2600
-0.2892 -1.1573 0.3528
-0.1088 -0.8577 0.5468
0.0209 -1.2683 0.6976
0.0287 -0.5713 0.3541
-0.5989 -1.1147 0.6840
-0.4789 -0.9330 0.5727
-0.0359 -0.1950 0.1514
-0.9131 -1.3783 0.8162
-0.2839 -1.2753 0.6258
-0.1468 -1.2097 0.5423
-0.6500 -1.1098 0.6274
-0.8637 -1.4444 0.7135
-0.9196 -1.3287 0.6892
-1.2258 -1.0969 0.6536
-0.2012 -1.3003 0.4360
-0.6730 -1.3896 0.5593
-0.3110 -0.6922 0.2752
-0.1871 -1.1320 0.3342
-0.1798 -0.8556 0.2253
-0.0465 -0.4446 0.1323
-1.3364 -1.2599 0.1355
-0.6640 -1.2184 -0.0832
-0.1796 -1.0100 -0.0775
-0.8589 -1.3351 0.0438
-0.7662 -1.5196 -0.0703
-0.1185 -0.1519 0.1016
-0.9118 -1.2794 1.0136
-0.1871 -1.2824 0.4863
-0.7450 -1.3320 0.2119
-0.5588 -1.2212 -0.0052
-0.3495 -1.2562 0.1531
-1.0150 -1.4531 0.9903
-0.6875 -1.2331 -0.2587
-0.0972 -1.3330 -0.1730
-0.4136 -2.4559 0.5809
-2.0356 -0.6950 0.8648
-0.7007 -1.4783 0.4711
-1.2406 -1.3966 -0.3051
-1.2469 -1.2744 -0.2977
-2.0020 -0.6288 0.5794
-0.2704 -1.3134 -0.2041
-1.3390 -1.2542 0.1414
-2.6534 -0.8316 0.1196
-2.5127 -0.7592 -0.1531
-1.3417 -0.4854 1.1266
-1.4696 -0.5485 1.1135
-1.5821 -0.5620 1.1206
-1.1581 -0.2397 0.8550
-0.4681 0.0581 0.3685
-0.3824 0.1119 0.1199
-0.3324 -1.4332 -0.3261
-0.0379 -0.2251 -0.0987
-2.0069 -0.6708 1.3957
-1.8206 -0.6138 1.2446
-0.9604 -1.2621 0.9580
-1.1510 -0.6444 0.7144
-1.2066 -0.6157 0.7155
-1.0637 -0.5823 0.0938
-1.5122 -0.6384 -0.0147
-1.2581 -0.6186 -0.0534
-1.1504 -0.5845 -0.0593
-0.5929 -0.2179 0.4220
-0.4150 -0.0013 0.2584
-0.5391 -0.0665 0.1632
-0.1746 -1.2526 -0.2573
-0.7988 -1.5973 -0.0581
-1.6578 -0.5210 1.2295
-0.9411 -1.3194 0.9582
-1.0654 -0.6292 0.6900
-1.2386 -0.5943 0.7129
-0.8963 -1.3343 0.7323
-1.2946 -0.5866 0.7209
-1.0023 -0.6185 0.6041
-1.0350 -0.5929 0.6012
-0.8149 -1.3806 0.6209
-1.1119 -0.5773 0.5798
-1.0164 -0.5618 0.5201
-1.1332 -0.6140 0.5606
-1.0986 -0.6065 0.5163
-1.1427 -0.6073 0.4915
-1.0875 -0.6111 0.4816
-1.0243 -0.6107 0.4651
-1.2261 -0.5981 0.4427
-1.1231 -0.6142 0.4223
-1.1921 -0.6119 0.3710
-1.1184 -0.6192 0.3227
-1.1394 -0.6069 0.2954
-1.1723 -0.6040 0.2704
-1.1146 -0.6070 0.2599
-1.1613 -0.6171 0.2346
-1.0034 -0.5657 0.2513
-1.2381 -0.6197 0.1849
-1.2050 -0.6137 0.1446
-1.1864 -0.5971 0.1554
-1.3546 -0.6429 0.1108
-1.1643 -0.6054 0.1039
-1.3922 -0.6617 0.0364
-1.1689 -0.6229 0.0064
-1.2419 -0.5933 -0.0140
-0.1861 0.1839 0.2200
-0.7758 -1.4670 -0.2439
-2.9582 -0.9716 2.1829
-1.0905 -0.5896 0.0249
-1.0488 -0.6114 0.2178
-0.7892 -1.3470 0.0331
-0.5594 -0.0369 0.0903
-0.3797 0.0487 0.2467
-1.2062 -0.6010 0.2448
-1.1459 -0.6301 0.4601
-1.2111 -0.6087 0.0780
-1.1858 -0.6128 0.4333
-1.1176 -0.5889 0.6511
-0.8966 -1.3921 0.0787
-0.8503 -1.3400 0.6293
-0.3225 0.1870 0.2249
-1.3252 -0.5961 -0.0279
-1.2379 -0.5956 0.3783
-1.2575 -0.6013 0.3178
-1.1705 -0.5442 0.5722
-1.2679 -0.5980 0.5767
-1.2788 -0.5966 0.5118
-1.2791 -0.5957 0.6801
-1.2415 -0.6079 0.2815
-1.2959 -0.5993 0.6160
-0.9456 -0.8602 0.6441
-0.3476 0.1251 0.1111
-1.0656 -1.4310 -0.0221
-0.2750 0.1386 0.1814
-1.2837 -0.6108 0.4208
-0.2994 0.1980 0.1673
-0.2032 0.2245 0.1398
-1.2956 -0.6027 0.3581
-1.2955 -0.6026 0.4570
-1.3024 -0.5951 0.5492
-1.0364 -0.6100 0.5049
-0.2743 0.1888 0.1487
-0.2454 0.2057 0.1362
-1.1626 -0.6155 0.3981
-1.3189 -0.5937 0.2683
-1.3299 -0.6022 0.1470
-1.0984 -0.6141 0.5878
-0.2039 0.2328 0.1291
-0.3174 0.1238 0.1123
-1.2056 -0.5122 0.3086
-1.2969 -0.6143 0.4233
-0.9974 -0.6082 0.6015
-1.0627 -0.6125 0.3115
-1.0926 -0.7285 0.7339
-1.1846 -0.6657 -0.0838
-0.8246 -0.5186 -0.0009
-1.6944 -0.6198 0.0298
-1.3716 -0.5792 -0.0155
-1.6119 -0.6498 0.0040
-1.4078 -0.5854 0.7391
-1.5726 -0.6019 0.5513
-1.3504 -0.5890 0.1840
-1.3292 -0.6207 0.4650
-1.4110 -0.4649 0.0635
-1.2362 -1.3649 -0.2903
-1.7123 -0.6700 0.0086
-1.3820 -0.6283 0.6094
-1.3476 -0.5759 0.3959
-1.2650 -0.6044 -0.0152
-1.2752 -0.6051 0.6500
-1.3437 -0.6151 0.7431
-1.1798 -0.6024 0.2706
-0.9776 -1.3093 0.9468
-1.2352 -0.5815 0.7071
-1.2292 -1.2318 -0.2907
-1.3608 -0.6053 0.3683
-1.6517 -0.5988 0.0046
-1.2106 -0.6286 0.4406
-1.4162 -0.5942 0.0255
-1.1816 -0.6432 0.6909
-1.1589 -0.5663 0.6027
-1.2911 -0.5972 0.5143
-1.3363 -0.6014 0.4929
-1.3424 -0.6006 0.4300
-1.2337 -0.5728 0.3131
-1.1151 -0.6151 -0.0085
-0.8140 -0.2682 0.1824
-1.4655 -0.5851 0.0374
-1.2385 -0.5935 0.0518
-1.2863 -0.5899 0.1761
-1.1003 -0.6129 0.0580
-1.1039 -1.2965 -0.0046
-1.0893 -0.6129 0.1264
-1.3289 -0.5718 0.1199
-1.1870 -0.5803 0.0831
-1.3512 -0.5952 0.0176
-1.1498 -0.6061 0.0673
-1.1156 -0.6125 0.5217
-1.1282 -0.5828 0.0054
-1.1406 -0.5975 0.4883
-1.0667 -0.6224 0.2197
-0.9995 -0.5443 0.5766
-1.5818 -0.6053 0.5105
-1.2240 -1.3351 -0.3472
-1.1826 -0.5950 0.3683
-1.2330 -0.5797 0.1558
-1.1823 -0.5934 -0.0252
-1.1579 -0.6067 0.6036
-1.2937 -0.5994 0.6839
-1.0661 -0.5769 0.5682
-1.1618 -1.2401 -0.2952
-1.0172 -1.3368 0.5617
-1.0868 -0.5682 0.2566
-1.1559 -0.6156 0.2982
-0.9933 -0.5334 0.1800
-1.1421 -0.5499 -0.0128
-1.0721 -0.5772 0.5725
-1.0859 -0.5778 0.3144
-1.1598 -0.5582 0.2988
-1.0677 -0.5856 0.4704
-1.1640 -0.5713 0.6879
-1.2808 -0.5676 0.3838
-1.2563 -0.5758 0.5718
-1.2948 -0.5721 0.7156
-1.2736 -0.5675 0.6030
-1.2719 -0.5552 0.7286
-0.9154 -0.4312 0.4635
-1.2801 -0.5784 0.2911
-1.3361 -0.5744 0.3007
-1.2587 -0.5785 0.4122
-1.0516 -0.5961 0.6070
-1.1536 -0.6755 0.6904
-1.0063 -0.6153 0.6037
-1.1405 -0.6359 0.5312
-1.3166 -0.6473 -0.0192
-1.1176 -0.6405 0.1244
-1.1818 -0.6262 -0.0019
-1.5461 -0.6516 -0.0131
-1.2339 -0.6596 -0.0708
-1.4029 -0.5865 0.0926
-1.2670 -0.6268 0.1203
-1.2421 -0.6072 -0.0500
-1.5019 -0.6217 0.1659
-1.7343 -0.6576 0.0370
-1.3975 -0.6838 0.3845
-1.2551 -0.6392 0.0785
-1.4069 -0.6594 -0.0346
-1.4168 -0.6691 0.3512
-1.1941 -0.6010 0.4624
-1.3796 -0.5913 0.4013
-1.5510 -0.6361 0.4009
-1.5221 -0.6294 0.1016
-1.5057 -0.6492 0.1978
-1.1890 -0.6170 0.3366
-1.1316 -0.6510 0.4977
-1.1339 -0.6674 0.5749
-1.1824 -0.6894 0.6292
-1.1567 -0.6278 0.4557
-1.3451 -0.6281 0.4682
-1.1543 -0.5655 0.4197
-1.2370 -0.6052 0.4094
-1.3426 -0.6137 0.3975
-1.3171 -0.6392 0.3288
-1.2381 -0.6258 0.3111
-1.2587 -0.6294 0.1900
-1.3081 -0.5940 0.1126
-1.4652 -0.6469 -0.0245
-1.1957 -0.6366 0.2404
-1.0547 -0.6002 0.4051
-1.1053 -0.6148 0.1620
-1.6829 -0.6648 0.5849
-2.4894 -0.2120 -0.2472
-1.3239 -0.6401 0.4989
-2.9875 -0.3301 -0.2043
-1.3101 -0.5924 0.6165
-2.9046 -0.3185 -0.3458
-1.2324 -1.3363 -0.3503
-1.5782 -0.6203 0.3014
-1.3050 -1.4461 -0.3467
-1.6670 -0.7028 0.1092
-1.2791 -0.6226 0.6190
-1.3614 -0.5902 0.3024
-1.5797 -0.6167 0.6886
-1.3687 -0.6044 0.3692
-1.4584 -0.6363 0.2870
-1.3820 -0.6304 0.2758
-1.6700 -0.6154 0.4541
-1.2899 -0.6217 0.5549
-1.4039 -0.6602 0.5856
-1.5067 -0.6073 0.0320
-1.1748 -0.6404 0.3685
-1.3692 -0.6147 0.4362
-1.4474 -0.6047 0.4872
-1.5507 -0.6461 0.4751
-1.6284 -0.6816 0.5343
-1.3557 -0.6424 0.1807
-1.5409 -0.6159 0.5446
-1.4793 -0.6133 0.0622
-1.4373 -0.6528 0.5532
-1.3474 -0.6183 0.0427
-1.2595 -0.6327 0.0101
-1.1582 -0.6079 0.4938
-1.5871 -0.6589 0.6343
-1.2515 -0.7450 0.5842
-1.1495 -0.6128 -0.0541
-1.3948 -0.6414 0.5114
-1.1480 -0.6552 0.3989
-1.3386 -0.6442 0.4344
-1.1582 -0.6521 0.3345
-1.4247 -0.6200 0.3452
-1.4787 -0.6058 0.3519
-1.1306 -0.6128 0.2617
-1.2361 -0.6389 0.2185
-1.4370 -0.6347 0.0506
-1.2686 -0.6175 0.0476
-1.2316 -0.6570 -0.0998
-3.2494 -0.7348 -0.4305
-3.4326 -0.5327 0.2644
-3.1539 -0.7341 -0.0057
-3.2222 -1.0205 -0.2712
-3.9929 -0.3436 0.2129
-3.0786 -0.4351 0.0898
-3.0741 -0.8056 -0.4134
-3.0570 -0.9090 0.0407
-3.7060 -0.8766 -0.5844
-3.4483 -0.4998 -0.4708
-3.8588 -0.2770 0.1175
-3.1156 -0.8963 -0.7096
-2.2042 -0.6789 -0.4883
-2.6761 -0.2830 0.0429
-3.0943 -0.6841 0.1110
-2.9290 -0.3180 -0.0136
-3.1119 -0.4293 -0.3242
-3.3971 -0.4039 -0.4541
-1.5505 -0.6532 0.5883
-1.4372 -0.6109 0.4493
-1.7659 -0.6609 0.0310
-1.3676 -0.6496 0.3085
-1.2120 -0.6105 0.1449
-1.4737 -0.6186 0.1287
-1.5659 -0.6199 0.3667
-1.3876 -0.6826 0.0766
-1.5268 -0.5995 0.4268
-3.4821 -0.4266 0.9617
-4.0641 -0.4491 0.8325
-4.3364 -0.4401 0.6225
-3.9793 -1.5289 0.6206
-3.3128 -0.9191 -0.7606
-3.3931 -0.9375 -0.4090
-3.2297 -0.3315 0.0900
-3.1508 -0.9187 -0.2411
-3.3483 -0.7570 -0.7540
-3.3419 -0.4878 -0.8059
-3.1591 -0.5740 0.1774
-1.3140 -0.6586 0.4694
-1.4340 -0.7002 -0.6193
-1.3597 -0.6067 0.0781
-1.1628 -0.6175 0.0672
-1.4835 -0.6126 0.2284
-1.3948 -0.6079 0.2458
-1.1040 -0.7112 0.4721
-1.3171 -0.6523 0.3989
-1.5120 -0.6408 0.4319
-1.0739 -0.6683 0.4249
-0.7304 -1.2227 -0.5591
-1.5003 -0.6533 0.0228
-1.2726 -0.6720 0.7494
-4.1836 -1.3205 -0.8768
-3.9201 -1.5563 1.0735
-4.0289 -0.8177 1.0636
-3.7661 -0.9554 -0.6825
-3.0054 -0.2361 -0.7149
-3.5052 -0.3660 0.1941
-3.0877 -0.5645 -1.0222
-2.8992 -0.2854 0.0425
-1.7000 -0.6598 -0.8556
-1.5405 -0.7868 -0.8125
-1.1809 -1.4228 -0.0116
-1.2957 -1.4389 -0.7055
-1.1644 -0.6343 0.2023
-1.2354 -0.6383 -0.0268
-1.1288 -0.6166 -0.0748
-1.0055 -0.5639 -0.5308
-3.3954 -0.4175 -0.8540
-2.8496 -0.3619 -0.0106
-1.3439 -0.6245 0.1118
-0.7290 -1.1801 -0.6689
-0.7285 -1.2466 -0.6961
-0.5294 -0.0052 0.1138
-3.6491 -0.8267 -1.1501
-3.2346 -0.6279 -0.9907
-1.4387 -0.8704 -0.7641
-3.2499 -0.5223 0.9392
-1.4367 -0.6420 0.1209
-4.0933 -0.4045 -0.7058
-3.9410 -0.2965 -0.6619
-0.7083 -1.0993 0.4989
-1.1684 -0.6105 0.3983
-1.4820 -0.6095 -0.0085
-1.2335 -0.6161 0.2483
-1.1427 -0.6414 -0.0080
-1.3489 -0.6187 -0.0309
-1.1960 -0.6405 0.2423
-1.4084 -0.6058 -0.0197
-1.5538 -0.6737 -0.0035
-1.1235 -0.6092 0.2611
-1.1857 -1.3349 -0.4771
-1.3075 -1.4556 -0.3813
-1.2551 -0.6485 0.1504
-1.1124 -0.6051 0.0237
-1.2612 -0.6440 0.0791
-3.2352 -0.7308 0.1161
-3.0808 -0.3594 -0.0171
-3.0924 -0.3129 0.0994
-1.3906 -0.6383 0.5114
-1.3821 -0.6591 0.4820
-1.6029 -0.6126 0.5119
-1.2014 -0.6430 0.4110
-1.3283 -0.6185 0.3004
-1.2137 -0.6212 0.2141
-1.1713 -0.6376 0.1357
-1.2479 -0.6236 0.0108
-1.6840 -0.6247 -0.0119
-1.1844 -1.4108 -0.0708
-1.2118 -1.3066 -0.3150
-1.2256 -1.4212 -0.6423
-3.9292 -0.2569 0.2118
-3.9216 -0.4401 0.7086
-2.9322 -0.2432 -0.7260
-2.7952 -0.6863 -0.3285
-3.1012 -0.1295 -0.6314
-3.6644 -0.2165 0.8711
-3.2656 -0.6079 0.1884
-3.1442 -0.4456 -0.3302
-1.1094 -0.6178 0.5925
-1.1141 -0.6109 0.5235
-3.2581 -0.4104 0.1867
-3.3063 -0.0121 -0.5993
-3.2164 -0.1636 -0.5077
-3.3253 -0.2791 1.1661
-1.2213 -0.6286 0.4722
-1.2285 -0.6308 0.7249
-1.2666 -0.6071 0.7241
-1.1492 -1.3176 0.0166
-1.6249 -0.6774 0.7959
-1.0511 -1.3828 0.5814
-1.1771 -1.2383 -0.3516
-3.3701 -0.3447 0.3775
-3.8662 -0.2657 1.2553
-3.4049 -0.1080 1.0411
-3.4897 -0.0800 1.0207
-3.5794 -0.9069 1.0397
-1.1366 -0.6084 0.5634
-1.1033 -0.6241 0.4881
-2.6675 -0.3286 -0.2075
-3.7385 -0.4333 0.5074
-2.9947 -0.1874 -0.9663
-1.2206 -1.3235 -0.2664
-1.0048 -0.5941 0.5673
-1.0348 -0.6066 0.5062
-1.0124 -0.5910 0.2771
-1.0896 -0.5925 0.6822
-1.0519 -0.6050 0.6127
-1.0707 -0.6096 0.5485
-1.1665 -0.6203 0.4995
-1.1828 -0.6503 0.4680
-1.1800 -0.6144 0.3356
-1.1296 -0.6153 0.2628
-1.1701 -0.6056 -0.0636
-1.1498 -0.6318 -0.0813
-1.0849 -0.5859 0.3164
-1.2921 -0.6369 0.2890
-1.2670 -0.6081 0.4383

