0.2625 -0.5861 0.7492
-0.4335 -0.3028 0.3061
0.0410 -0.0113 0.3187
0.1209 -0.0134 0.2023
0.1282 -0.0587 0.3045
0.0616 -0.0232 0.3900
0.0630 -0.0302 0.4090
0.2317 -0.0111 0.2902
0.2351 -0.0443 0.2888
0.2222 -0.0196 0.3002
0.2349 -0.0224 0.3093
0.2325 -0.0420 0.3038
0.2271 -0.0192 0.3439
0.2295 -0.0212 0.3559
0.1825 -0.0041 0.3258
0.2156 -0.0194 0.3577
0.1759 0.0049 0.3367
0.1365 0.0035 0.2899
0.1934 -0.0294 0.3652
0.1336 -0.0248 0.3423
0.1296 -0.0352 0.3315
0.0805 -0.0110 0.3029
0.0590 -0.0160 0.2872
0.1339 -0.0149 0.3611
0.1840 -0.0458 0.4075
0.1110 -0.0201 0.3544
0.0774 -0.0008 0.3309
0.1322 -0.0334 0.3833
-0.0796 0.2179 0.2211
0.1925 -0.0394 0.4262
0.0611 -0.0299 0.3351
0.0850 -0.0263 0.3689
0.1099 -0.0090 0.3864
0.1065 0.0180 0.3686
0.1566 -0.0153 0.4360
0.0210 -0.0014 0.3524
0.0959 -0.0053 0.4158
0.0655 -0.0168 0.4031
-0.0092 0.0245 0.3520
0.0891 0.0074 0.4302
0.1230 -0.0217 0.4678
0.0656 -0.0321 0.4310
0.0349 -0.0416 0.4331
-0.0038 -0.0032 0.4126
0.0519 -0.0277 0.4725
0.0288 -0.0005 0.4482
-0.1538 -0.0285 0.3103
0.0389 -0.0094 0.4782
0.0305 -0.0284 0.4796
0.0248 -0.0349 0.4888
0.0693 0.0025 0.5281
0.0302 0.0092 0.4953
0.0870 -0.0182 0.5599
-0.0836 0.0017 0.3896
-0.0990 -0.0443 0.4337
0.0220 -0.0118 0.4570
0.0841 -0.0247 0.3257
0.0818 -0.0216 0.3731
0.0946 -0.0253 0.4626
0.1435 -0.0230 0.3288
0.1282 0.0301 0.4009
0.1191 -0.0456 0.4796
0.0755 -0.0263 0.4413
0.0668 0.0137 0.4752
0.2504 -0.0305 0.1397
0.2587 -0.0448 0.1566
0.0964 0.1342 0.1593
0.2458 -0.0120 0.2013
0.1711 -0.0302 0.1694
0.1275 -0.0150 0.1528
0.2315 -0.0132 0.2246
0.0967 -0.0167 0.1682
0.1502 -0.0202 0.2006
0.1425 -0.0081 0.2099
0.0674 -0.0044 0.1685
0.0917 -0.0155 0.1850
0.2188 -0.0095 0.2724
0.1305 -0.0437 0.2114
0.1329 -0.0348 0.2183
0.0953 -0.0125 0.2104
0.1235 -0.0162 0.2353
0.1491 0.0099 0.2663
0.0512 0.0079 0.2247
0.1386 -0.0431 0.2759
0.0778 0.0122 0.4847
0.0107 -0.0232 0.4728
0.1641 -0.0340 0.1610
0.1494 -0.0015 0.1954
0.1548 -0.0192 0.2200
0.1478 0.0902 0.2311
0.1734 -0.0134 0.2280
0.2551 -0.0447 0.2754
0.1930 -0.0410 0.2614
0.2681 -0.0058 0.3325
0.2497 -0.0288 0.3194
0.2525 -0.0572 0.3354
0.2805 -0.0266 0.3598
0.2473 -0.0089 0.3445
0.1619 -0.0260 0.2989
0.2153 0.0111 0.3728
0.0858 -0.0137 0.2863
0.1579 -0.0248 0.3382
0.2467 -0.0396 0.4063
0.2217 -0.0024 0.3980
0.1374 -0.0045 0.3482
0.2312 -0.0234 0.4421
0.0391 -0.0111 0.3402
0.0204 -0.0098 0.3435
0.1516 0.0169 0.4411
0.1992 -0.0079 0.4924
0.1802 -0.0198 0.4943
0.1678 -0.0262 0.4825
0.0829 -0.0049 0.4393
0.0197 -0.0225 0.3993
0.1645 -0.0204 0.5128
0.1010 -0.0162 0.4768
0.0645 -0.0450 0.4698
0.2512 -0.1316 0.6450
0.1421 -0.0064 0.5369
0.0585 -0.0060 0.4728
0.1376 -0.0187 0.5470
0.1101 -0.0031 0.5646
0.0999 0.0227 0.5571
0.2321 -0.0372 0.3304
0.0105 -0.0037 0.3721
0.0990 0.2250 0.2100
-0.1329 0.3905 0.1805
0.0192 0.2345 0.1711
0.0662 0.1003 0.2770
-0.1414 0.3028 0.1660
0.2067 -0.0293 0.1240
0.1152 -0.0356 0.1059
0.1456 -0.0229 0.1332
0.1528 -0.0170 0.1195
0.1681 -0.0267 0.1105
0.3514 -0.0118 0.2206
0.3607 -0.0075 0.2484
0.2364 0.0247 0.2423
0.2495 -0.0136 0.2404
0.1358 -0.0498 0.0444
0.3876 -0.0216 0.2316
0.0800 -0.0065 0.3587
0.0627 -0.0090 0.3808
0.0477 -0.0042 0.4324
0.1308 -0.0320 0.0668
0.1244 -0.0787 0.1106
-0.0077 -0.0164 0.4777
0.1232 0.0183 0.5747
0.1537 0.0315 0.5651
0.0643 -0.0171 0.4579
0.0798 -0.0055 0.4136
0.0790 -0.0182 0.4098
0.1146 -0.0131 0.1344
0.4238 -0.0035 0.3146
0.3639 0.0053 0.2906
0.3680 -0.0069 0.2849
0.3893 0.0029 0.3083
0.2496 0.0117 0.4883
0.0239 0.0219 0.3116
0.2967 -0.0090 0.4773
0.1515 -0.0296 0.1915
0.3284 -0.0048 0.4105
0.3397 0.0065 0.3521
0.3704 -0.0065 0.3666
0.3480 -0.0111 0.3628
0.3145 0.0255 0.3684
0.3616 -0.0611 0.1324
0.1015 -0.0213 0.2228
0.3795 -0.0218 0.1899
0.3415 -0.0068 0.4022
-0.0141 -0.0192 0.4845
0.2701 -0.0207 0.3643
-0.0562 0.2896 0.3075
0.1149 -0.0214 0.2885
0.3011 -0.2433 0.6581
0.2937 -0.0149 0.4423
0.3685 -0.2382 0.6865
0.4158 -0.0106 0.2864
0.2653 -0.0015 0.4642
0.4069 -0.0114 0.3350
0.2776 -0.0222 0.2446
0.1159 -0.0241 0.4111
0.3035 -0.0209 0.2195
0.3093 -0.0189 0.2298
0.2089 -0.0157 0.5363
0.1877 0.0208 0.5287
-0.1280 0.0342 0.1696
0.2497 -0.0654 0.0777
0.2459 -0.0448 0.1307
0.3191 -0.0333 0.2670
0.2512 -0.0589 0.4351
0.2731 -0.0078 0.4844
0.1022 0.0080 0.3830
0.2192 -0.0104 0.5111
-0.0606 0.2752 0.1706
0.1272 -0.0227 0.3019
0.0511 -0.0041 0.3133
0.1474 0.0049 0.4187
0.0449 0.0014 0.3944
0.0288 0.1603 0.4123
0.1034 -0.0418 0.5273
-0.1406 -0.0292 0.3261
-0.1527 -0.0239 0.3114
0.1329 -0.0008 0.5576
0.0724 -0.0641 0.5870
0.0443 -0.0557 0.5718
0.1110 0.0058 0.2927
0.0345 -0.0220 0.3327
0.0976 -0.0007 0.5639
0.0347 -0.0046 0.3754
0.0300 0.1301 0.1588
0.4306 -0.0268 0.3752
0.3695 0.0003 0.4631
0.2783 0.0308 0.4582
0.3044 -0.0039 0.4821
0.2792 -0.0112 0.4869
0.2960 -0.0017 0.5029
0.2860 -0.0064 0.4972
0.2678 0.0069 0.5122
0.2527 -0.0205 0.5875
0.2090 0.0221 0.5882
0.3796 -0.0538 0.3133
0.0970 -0.0039 0.2635
0.2636 -0.0185 0.5557
0.1551 0.0083 0.1906
0.1723 0.1138 0.3553
0.2121 -0.0539 0.3759
0.0735 -0.0006 0.2985
0.2430 -0.0330 0.4950
0.1798 -0.0203 0.4557
0.0201 0.0116 0.5440
0.1636 -0.0222 0.5991
0.0712 -0.0422 0.4561
0.3194 -0.0156 0.3301
0.0912 -0.0389 0.4768
0.2283 0.0008 0.2071
0.4172 -0.0435 0.3316
0.1342 -0.0375 0.2179
0.2963 0.0243 0.3384
0.3209 -0.1325 0.3155
0.0662 0.0035 0.3993
0.3028 -0.0083 0.5662
0.2428 0.0142 0.5727
-0.0275 0.2069 0.2016
0.2181 -0.0225 0.3261
0.3004 0.0096 0.4498
-0.0148 -0.0316 0.5460
0.0011 -0.0513 0.5935
0.1524 -0.0270 0.1799
0.1961 -0.0565 0.1913
0.3084 -0.0707 0.2436
0.1775 -0.0187 0.2317
0.2413 0.0853 0.2925
0.1257 -0.0357 0.2099
0.2323 -0.0171 0.2682
0.3825 -0.0202 0.3478
0.2748 0.0031 0.2996
0.2196 -0.0134 0.2999
0.3785 -0.0734 0.3629
0.3334 -0.0839 0.3390
0.2781 0.0048 0.3597
0.3442 -0.0168 0.4037
0.1121 0.0004 0.2961
0.2157 -0.0054 0.3476
0.3661 -0.0385 0.4296
0.1503 -0.0235 0.3270
0.2228 -0.0157 0.3982
0.3002 -0.0551 0.4344
0.1372 -0.0074 0.3538
0.2874 -0.0123 0.4461
0.2005 -0.0284 0.4002
0.2197 -0.0008 0.4083
0.1104 -0.0223 0.3573
0.3125 -0.0194 0.4767
0.2064 0.0055 0.4265
0.3131 -0.0488 0.4931
0.0205 0.1535 0.3546
0.0961 -0.0271 0.3851
0.3502 -0.0199 0.5475
0.2876 -0.0287 0.5203
0.3086 -0.0248 0.5518
0.2166 -0.0273 0.5080
0.3728 -0.0360 0.6145
0.1609 -0.0195 0.4821
0.3295 -0.0150 0.5916
0.0479 0.0171 0.4229
0.0634 -0.0069 0.4506
0.1762 -0.0305 0.5366
0.2206 -0.0628 0.5785
0.1783 0.0018 0.5458
0.0373 0.0020 0.4548
0.0635 -0.0173 0.4852
0.2810 -0.0247 0.6445
0.2468 -0.0237 0.6336
-0.0863 0.2145 0.3714
0.0941 -0.0408 0.5638
0.1358 -0.0312 0.6039
0.0321 0.0019 0.5205
0.0436 -0.0354 0.5518
0.0257 -0.0451 0.5574
0.0017 0.0039 0.5427
0.0904 -0.0142 0.1865
0.0200 -0.0171 0.4219
0.1591 -0.0208 0.4432
0.0145 -0.0169 0.4395
0.0284 0.0524 0.3537
0.3067 -0.0232 0.6538
0.0199 -0.0150 0.4637
0.0807 -0.0082 0.4578
0.1380 -0.0065 0.2023
0.2326 -0.1074 0.2094
0.3310 -0.0026 0.3987
0.1600 -0.0059 0.3027
0.1770 -0.0075 0.3481
0.1376 -0.0106 0.3195
0.0263 0.0230 0.3120
0.1592 -0.0268 0.4628
0.0916 0.1199 0.4322
0.0992 -0.0559 0.3885
0.0675 -0.0234 0.4080
0.1033 -0.0340 0.4664
0.0267 -0.0600 0.5136
0.0923 0.1122 0.4769
0.0580 -0.0015 0.4975
0.0837 -0.0278 0.3543
0.2855 -0.0270 0.3406
0.3673 -0.0571 0.2746
0.0645 0.2312 0.3115
0.2995 -0.0038 0.1058
0.3975 0.0033 0.1317
0.5768 -0.4162 0.3830
0.0768 -0.0026 0.4133
0.0553 0.0330 0.4143
0.1054 -0.0125 0.0555
0.2413 -0.0013 0.1001
0.4327 -0.0272 0.1448
0.0907 0.0151 0.1307
0.2114 0.0161 0.3228
0.1348 -0.0301 0.4532
0.1301 -0.0300 0.0736
0.1875 0.0069 0.1081
0.1947 -0.0179 0.1178
0.3300 0.0013 0.1155
0.3309 -0.0291 0.1280
0.3268 0.0258 0.1430
0.1198 0.0082 0.1493
0.1431 -0.0075 0.1573
0.2195 0.0086 0.1640
0.1729 -0.0314 0.1756
0.1593 0.0036 0.1895
0.1550 -0.0305 0.1915
0.1730 -0.0310 0.2001
0.2343 -0.0031 0.1983
0.1284 -0.0078 0.2086
0.2033 0.0051 0.2145
0.1637 -0.0314 0.2214
0.3873 -0.0249 0.2298
0.3207 -0.0083 0.2415
0.3980 0.0094 0.2426
0.3937 -0.0379 0.2603
0.3642 -0.0010 0.2542
0.5593 -0.2617 0.3732
0.1384 -0.0141 0.2553
0.3543 -0.0067 0.2722
0.3583 -0.0028 0.2827
0.0857 -0.0085 0.2660
0.3664 0.0220 0.2948
0.1102 0.0043 0.2884
0.0911 0.0079 0.2969
0.2878 0.0992 0.2978
0.3633 -0.0041 0.3356
0.0723 0.0091 0.3063
0.1939 0.0148 0.3264
0.0331 0.0072 0.3127
0.3396 0.0068 0.3482
0.1805 -0.0026 0.3352
0.3944 -0.0046 0.3703
0.2083 0.0190 0.3584
0.0185 -0.0264 0.3708
0.2297 -0.0142 0.4032
0.0505 -0.0290 0.3910
0.0526 0.0052 0.3916
0.0779 -0.0182 0.4093
0.1651 -0.0048 0.4438
0.0719 0.0033 0.1125
0.1465 -0.0040 0.4288
0.0154 -0.0013 0.4098
0.2197 -0.0136 0.3528
0.1356 0.0012 0.0675
0.0669 0.0296 0.1800
0.1507 0.0080 0.2053
0.2432 0.0268 0.3707
0.1573 0.0537 0.1231
0.0967 0.0130 0.1326
0.4349 -0.0097 0.1434
0.3883 -0.0068 0.1472
0.2984 -0.0089 0.1498
0.1083 -0.0052 0.1821
0.0788 -0.0017 0.2241
0.1376 0.0119 0.2501
0.1660 -0.0353 0.3041
0.3639 0.0203 0.3148
0.0433 0.0042 0.2964
0.3190 -0.0196 0.3359
0.2015 -0.0281 0.3350
0.0673 0.0009 0.3150
0.2406 0.0078 0.3413
0.3199 0.0417 0.3697
0.2926 0.0270 0.3856
0.2736 -0.0207 0.4360
0.0212 0.0294 0.2760
0.1429 -0.0034 0.0606
0.1467 -0.0196 0.2041
0.1330 0.0641 0.1690
0.2770 0.0501 0.3583
0.1844 -0.0353 0.1999
0.1182 0.0084 0.2507
0.1134 -0.0100 0.1135
0.4063 -0.0116 0.1623
0.3585 -0.0102 0.1873
0.2254 -0.0085 0.2231
0.2639 0.0000 0.2376
0.0249 -0.0083 0.2789
0.2111 -0.0034 0.3454
0.1602 -0.1074 0.3853
0.2484 -0.0222 0.3646
0.1667 -0.0003 0.3494
0.1960 -0.0239 0.3955
0.3565 0.0099 0.2823
0.1109 -0.0072 0.2138
0.4123 -0.0036 0.3331
0.0906 0.0134 0.0542
0.1561 0.0189 0.0741
0.4028 -0.0008 0.1390
-0.2380 -0.7392 0.1427
0.1607 0.0060 0.1002
0.3240 0.0082 0.1106
0.1413 0.0057 0.1296
0.4513 0.0062 0.1495
0.4274 -0.0013 0.2031
0.3780 -0.0094 0.2143
0.3303 0.0008 0.2154
0.1106 -0.0099 0.2327
0.2236 -0.0104 0.2604
0.3135 0.0315 0.3528
0.3398 0.0352 0.3606
0.4161 0.0059 0.1355
0.3604 0.0177 0.1198
0.3679 -0.0030 0.1197
0.4013 -0.0122 0.2303
0.3006 0.0232 0.3718
0.4244 -0.0336 0.2155
-0.2545 -0.7256 0.1885
0.2635 0.0369 0.1746
0.3236 0.0302 0.3116
0.2617 0.0214 0.3350
0.3617 0.0321 0.1225
0.1781 -0.0352 0.3210
-0.2528 -0.7880 0.1906
0.4006 -0.0024 -0.2618
0.0912 0.0131 0.0507
-0.1509 0.3734 0.0668
-0.0134 0.0428 -0.2741
0.1005 0.0337 -0.2920
0.4812 -0.0133 0.1582
0.3324 -0.0019 -0.3297
-0.1609 -0.6870 -0.5197
0.0863 0.0033 -0.4086
-0.0753 0.0167 -0.3688
0.2268 0.0285 -0.4162
-0.0408 0.0201 -0.3596
0.0962 -0.0108 -0.4019
0.5178 -0.0290 -0.4850
0.5062 -0.0376 -0.4922
-0.3606 -0.6198 -0.5805
-0.0679 0.0301 -0.3479
-0.0666 -0.0175 -0.3568
0.0662 0.0220 -0.3548
0.0520 -0.0173 -0.3666
-0.1263 0.0116 -0.3262
0.0700 -0.0277 -0.3762
-0.1140 0.0160 -0.3201
-0.0171 0.0257 -0.3250
0.0295 -0.0106 -0.3455
-0.0648 -0.0113 -0.3216
0.0613 0.0026 -0.3280
0.0784 -0.0052 -0.3266
-0.0185 -0.0100 -0.3102
0.0311 -0.0137 -0.3133
-0.0250 0.0343 -0.2821
0.0729 -0.6177 -0.3634
0.0805 0.0282 0.1268
0.0964 0.0159 0.0623
0.1225 -0.0092 -0.3984
0.0129 -0.0074 -0.3734
0.4547 0.0318 -0.4313
0.2591 0.0284 -0.3886
0.0991 0.0165 -0.3573
0.0056 0.0119 -0.3247
-0.1154 -0.8555 -0.6336
0.4091 -0.0413 -0.3824
-0.0719 -0.0090 -0.3019
0.1249 0.0107 -0.3058
0.4306 -0.0239 0.1447
-0.0207 -0.0164 -0.3302
0.0782 -0.0275 0.3741
-0.0600 -0.0179 -0.4015
-0.0257 0.0101 -0.3833
0.0976 0.0086 0.0550
0.0045 0.0444 -0.2892
0.1790 -0.0144 0.1007
0.1227 0.0061 0.1495
-0.0356 -0.0034 -0.3104
0.0535 0.0023 -0.2934
0.1052 -0.0034 -0.3271
-0.0031 -0.0518 -0.4644
0.0881 0.0099 -0.4366
0.1046 0.0248 -0.4265
0.2103 0.1407 -0.4077
0.0005 -0.0380 -0.4233
0.1563 -0.0084 -0.4936
0.1628 -0.0118 -0.4492
0.4148 0.0167 -0.4512
0.1123 -0.0033 -0.3329
-0.3628 -0.6079 -0.0596
0.3590 0.0436 -0.4637
-0.1537 -0.7591 -0.1566
-0.0764 -0.0632 -0.4531
0.1112 0.0476 -0.4346
0.2277 0.0145 -0.4519
-0.1662 -0.7254 -0.1191
0.1161 0.0264 0.0559
0.3367 -0.0161 0.1668
0.2257 0.1229 -0.3594
0.3257 0.0345 -0.3464
0.1312 0.0098 -0.3008
-0.1091 0.0133 -0.3810
0.0346 0.0446 -0.4085
-0.0605 -0.0137 -0.3713
-0.0710 0.0017 -0.3479
-0.0099 -0.0310 -0.3694
0.2193 0.0431 -0.3997
-0.0728 0.0157 -0.3218
0.0448 0.0168 -0.3527
0.0582 0.0201 -0.3468
0.0868 0.0275 0.0680
0.1281 0.0059 0.1255
0.4225 -0.0514 0.1646
0.1213 0.0116 0.1802
0.2730 0.1157 0.1559
0.1275 0.0397 0.1756
0.1968 0.0344 0.1852
0.1674 -0.0200 0.1962
0.3743 0.0213 -0.2479
0.2821 -0.0357 0.1101
0.0524 0.0007 -0.2995
-0.0454 0.0366 0.1117
-0.2477 -0.7135 0.1785
-0.0493 0.0155 -0.2927
0.1031 0.0108 0.0388
0.1779 -0.0027 0.1735
0.2020 -0.0188 0.2101
0.3750 -0.0122 0.2311
0.4003 0.0038 0.1435
0.1298 0.0094 0.2104
0.1530 0.0099 0.2205
0.3496 0.0582 0.1163
-0.1064 0.0596 -0.2717
-0.0524 0.0128 -0.3008
-0.0715 0.0016 -0.3450
0.0914 0.0115 0.0533
0.1306 0.0084 0.2838
0.1074 -0.0073 0.2823
0.1182 0.0202 0.1500
0.1755 0.0064 0.2770
0.2593 0.0225 0.2289
0.3078 -0.0055 0.1293
0.3233 -0.0254 0.1072
0.3621 0.0031 0.2562
0.3439 0.0152 0.3266
0.1580 -0.0655 -0.3627
0.0262 0.0099 -0.3519
-0.0688 -0.0047 -0.3294
0.1351 -0.0096 -0.3058
0.4550 -0.0197 0.1471
0.1779 -0.0094 0.0730
0.2105 0.0461 0.3034
0.3941 0.0088 0.1368
0.2226 -0.0063 0.1856
0.1807 0.0056 0.1843
0.1484 0.0094 0.2052
0.0084 0.0000 -0.3295
0.1295 0.0041 -0.3066
0.0539 -0.0044 -0.2965
-0.0733 -0.0137 -0.3112
0.2029 -0.0052 0.0824
0.3151 0.0043 0.2934
-0.0017 -0.6968 -0.0037
0.0508 0.0212 -0.3453
0.1573 -0.0243 0.0646
-0.0049 -0.0062 0.0690
0.4147 -0.0336 0.1341
0.2250 -0.0152 0.2871
0.2030 -0.0056 0.3179
0.0517 0.0039 0.2822
-0.0001 -0.0104 -0.3024
0.4001 -0.0026 -0.2618
0.1627 0.0203 0.1937
-0.1607 -0.7525 -0.1530
-0.4026 -0.6700 0.4258
0.1375 -0.7764 -0.3879
-0.4621 -0.7027 0.2880
-0.0301 0.0014 -0.3121
0.4138 -0.0075 0.1471
0.0264 0.0307 -0.3434
0.1300 -0.0219 0.0739
0.0865 -0.0239 0.3586
0.3846 -0.0262 0.2569
0.1168 -0.0120 0.0738
0.0831 0.0177 0.0564
0.3565 -0.0495 0.1116
0.1514 -0.0170 0.1084
-0.2225 -0.7066 0.0881
0.0848 -0.0060 0.4179
0.1412 0.0003 0.4429
0.3030 -0.0515 0.5327
0.0197 -0.0110 -0.2985
-0.0153 0.0145 -0.3578
0.1169 0.0173 0.0642
0.1501 -0.0110 0.2172
0.2882 -0.0035 0.2583
0.1057 -0.0301 0.4501
0.2560 -0.0396 0.5268
0.1078 -0.0138 0.5758
0.1064 -0.0129 0.2948
0.1280 -0.0088 0.5829
0.1555 0.0749 0.1056
0.0600 0.0060 -0.3655
0.2571 -0.0125 0.3637
-0.0353 0.0020 0.5298
0.3051 0.0240 0.3795
0.1586 -0.0078 0.5871
0.0692 -0.0054 0.5659
0.2358 0.0116 0.0963
0.1650 -0.0264 0.5410
0.0261 0.0046 0.5387
0.1467 0.0009 0.1934
0.0216 0.0057 0.5485

