-0.1749 -0.6240 0.9828
-0.0844 -0.6095 0.5393
-0.2239 -0.6636 0.4964
-0.0581 -0.6296 1.1155
-0.5515 -0.6119 0.8989
-0.1158 -0.6554 0.6242
-0.0216 -0.7592 0.4323
-0.3061 -0.6696 0.9990
-0.1542 -0.6579 0.5277
-0.3773 -0.6559 0.9510
0.0437 -0.6427 1.1895
-0.1692 -0.6137 1.0754
-0.2386 -0.6819 0.8410
-0.1058 -0.6416 0.5018
0.0135 -0.6488 1.0581
0.0614 -0.6505 0.8032
0.0423 -0.6682 0.8765
0.0213 -0.6930 0.8276
-0.2487 -0.6217 1.0319
-0.3172 -0.6237 0.9998
-0.3232 -0.7105 0.4194
0.0929 -0.6559 0.8357
0.1218 -0.6880 0.7326
-0.0770 -0.6460 1.0761
-0.0017 -0.6661 0.7573
-0.1285 -0.6135 1.0723
-0.2004 -0.6219 1.0559
-0.1728 -0.6411 0.8962
-0.2653 -0.6391 0.9867
-0.3127 -0.6142 0.8852
-0.1793 -0.6635 0.4728
-0.2029 -0.6370 0.5386
-0.0966 -0.6559 1.1572
-0.1435 -0.6738 1.1957
-0.2087 -0.7159 0.3986
-0.2686 -0.7205 0.3489
-0.3968 -0.7053 0.5442
-0.4506 -0.6833 0.6045
-0.4101 -0.6897 0.4816
-0.3041 -0.6981 0.3977
-0.2985 -0.7064 0.3815
-0.3434 -0.7042 0.3614
0.1428 -0.6723 0.9943
0.1036 -0.6561 0.9219
0.0628 -0.6477 1.1313
-0.0076 -0.6206 0.9749
0.0398 -0.6561 0.7301
0.0214 -0.5998 0.6436
-0.0654 -0.6534 1.1994
-0.0429 -0.6870 1.0520
-0.0279 -0.6616 0.7258
-0.0538 -0.6749 0.7848
-0.0426 -0.7019 0.6791
-0.1432 -0.6374 0.6845
-0.2231 -0.7065 0.9320
-0.1664 -0.6658 0.6517
-0.1027 -0.6288 0.3930
-0.2928 -0.6447 0.8414
-0.2457 -0.6853 0.6545
-0.2783 -0.6462 0.6419
-0.2500 -0.6346 0.5614
-0.1845 -0.6886 0.3908
-0.2986 -0.6473 0.5955
-0.2233 -0.5490 0.4270
-0.4433 -0.6676 0.8870
-0.2797 -0.6126 0.4653
-0.4775 -0.6251 0.8791
-0.3094 -0.6114 0.5301
-0.3645 -0.6662 0.4443
-0.6108 -0.6088 0.8691
-0.2611 -0.4387 0.3415
-0.0079 -0.6224 1.1934
-0.3377 -0.6596 0.4769
-0.3108 -0.6587 0.3238
-0.1370 -0.6762 0.3894
-0.3536 -0.6103 0.3537
-0.4159 -0.6566 0.3668
-0.0234 -0.6731 1.0926
-0.0120 -0.6581 0.8892
-0.0305 -0.6970 0.8522
-0.0757 -0.6546 0.9866
-0.0901 -0.6664 0.8554
-0.1499 -0.6291 1.0337
-0.0762 -0.6247 0.7209
-0.1061 -0.6841 0.8167
-0.1218 -0.6513 0.7423
-0.1759 -0.6656 0.7705
-0.1338 -0.6708 0.5750
-0.2501 -0.6232 0.8499
-0.1913 -0.6748 0.6239
-0.2146 -0.6550 0.6658
-0.2664 -0.6731 0.6910
-0.3363 -0.6781 0.6642
-0.4610 -0.6213 0.9468
-0.2369 -0.6943 0.3417
-0.4622 -0.6580 0.5966
-0.6168 -0.6532 0.8441
-0.6606 -0.6468 0.8577
-0.5946 -0.6072 0.7451
-0.5907 -0.6545 0.6840
-0.3425 -0.6333 0.4966
-0.3289 -0.7212 0.4474
0.1071 -0.6555 0.6008
-0.0636 -0.6469 0.7624
0.0160 -0.6470 0.3372
-0.0223 -0.6377 0.4948
-0.0382 -0.6518 0.5764
-0.0181 -0.6425 0.3508
-0.0697 -0.6631 0.5267
-0.1199 -0.6541 0.5445
-0.2871 -0.6226 1.0388
-0.1808 -0.6518 0.3977
-0.2688 -0.6200 0.4303
-0.4959 -0.6038 0.8638
-0.2953 -0.6772 0.3029
-0.4884 -0.6235 0.4593
-0.4733 -0.6572 0.3962
0.0128 -0.6574 0.5116
-0.3030 -0.6546 0.4086
-0.3016 -0.6611 0.3019
-0.2943 -0.6740 0.5636
0.0405 -0.6883 0.4619
0.1190 -0.6946 0.4963
-0.2885 -0.6554 0.3750
-0.3786 -0.6411 0.2915
-0.3325 -0.6056 0.4012
-0.0882 -0.6566 0.4663
-0.2157 -0.6161 0.5776
-0.3417 -0.6541 0.3963
-0.2738 -0.6677 0.3365
-0.0433 -0.6828 0.4688
-0.4372 -0.6436 0.3308
-0.0671 -0.6505 0.5135
0.1014 -0.6809 1.1014
0.0577 -0.6182 0.7605
0.0684 -0.6601 0.5824
-0.0047 -0.6641 1.1287
-0.0966 -0.6506 1.0382
-0.2264 -0.6132 0.8957
-0.3169 -0.6670 0.7111
-0.2281 -0.6750 0.3510
-0.4182 -0.6548 0.6794
-0.3866 -0.6594 0.6097
-0.4768 -0.6246 0.8076
-0.4464 -0.6743 0.6368
-0.5374 -0.5946 0.7140
-0.5337 -0.6453 0.6653
-0.4619 -0.6680 0.3607
0.0811 -0.6391 1.1552
0.1081 -0.6435 0.4722
0.0031 -0.6521 1.2114
0.0289 -0.6344 0.5626
0.0092 -0.6511 0.5172
-0.0208 -0.6416 0.5882
-0.1637 -0.6706 0.2908
-0.2020 -0.6739 0.3449
-0.2521 -0.6779 0.3660
-0.3716 -0.6360 0.2806
-0.3673 -0.5960 0.3052
-0.3985 -0.6661 0.5127
-0.4020 -0.6069 0.3733
-0.3622 -0.6538 0.3430
0.0367 -0.6399 1.0727
0.0732 -0.6574 0.7039
-0.2040 -0.6193 0.8239
-0.2760 -0.5941 0.8940
-0.2773 -0.6321 0.8113
-0.3023 -0.6776 0.7663
-0.1645 -0.6157 0.3667
-0.3870 -0.6609 0.8600
-0.2247 -0.6352 0.3236
-0.4312 -0.5865 0.7857
-0.3962 -0.6480 0.5595
-0.4669 -0.6474 0.6923
-0.5222 -0.6531 0.7158
-0.4009 -0.6265 0.4532
-0.3582 -0.6077 0.2744
0.0395 -0.6444 0.6567
-0.1256 -0.6450 0.4548
-0.3997 -0.6453 0.3346
0.1937 -0.6813 0.5067
-0.3015 -0.6998 0.3808
-0.1477 -0.6753 0.4063
0.1672 -0.6528 0.5358
-0.0044 -0.6618 0.5540
0.0584 -0.6496 0.9037
-0.0272 -0.6615 0.7055
-0.1508 -0.6580 0.8182
-0.2094 -0.6268 0.9490
-0.2431 -0.6551 0.7333
-0.2418 -0.6958 0.6354
-0.3469 -0.6376 0.7716
0.0909 -0.6364 0.4991
0.0270 -0.6801 0.4805
-0.0712 -0.6857 0.7363
-0.1569 -0.7092 0.5333
-0.2710 -0.7480 0.5904
-0.3020 -0.6604 0.5904
-0.0421 -0.6477 0.6201
-0.1268 -0.6710 0.4548
-0.3048 -0.4945 0.4749
-0.1273 -0.0784 0.3383
-0.3650 -0.6702 0.4338
0.0353 -0.6356 0.8408
-0.5123 -0.6685 0.7787
-0.2593 -0.6606 0.3668
-0.1237 0.0782 0.3587
-0.1125 0.0800 0.3470
-0.1071 0.0778 0.3571
-0.2962 -0.7551 0.3368
-0.1031 -0.0129 0.3348

