-0.0041 -0.0439 0.3015
-0.0101 0.0862 0.2609
-0.0725 0.0961 0.2403
-0.0343 0.0160 0.3858
0.0077 0.0003 0.4456
-0.0577 -0.0065 0.4245
-0.2366 -0.0063 0.2815
-0.0015 -0.0459 0.4972
-0.0647 0.0109 0.4347
-0.0327 0.0047 0.4906
-0.0494 0.0177 0.5082
-0.0696 0.0467 0.4777
-0.0681 -0.0032 0.5176
-0.0946 0.0088 0.4914
-0.1258 -0.0251 0.5328
-0.1260 0.0178 0.5107
0.1773 -0.0253 0.2894
0.0558 0.0408 0.2478
0.0905 -0.0152 0.2528
0.1845 -0.0465 0.3258
0.1591 0.0194 0.3412
-0.0354 0.0098 0.2478
0.0721 0.0326 0.3411
0.1470 -0.0079 0.3976
0.0900 0.0014 0.3929
-0.0106 0.0120 0.3250
-0.0016 0.0058 0.3591
0.0689 -0.0077 0.4274
-0.0652 -0.0015 0.3274
-0.0107 0.0168 0.3649
-0.1448 0.2078 0.2686
0.0066 0.0299 0.4117
-0.0458 0.0179 0.3868
-0.0271 0.0260 0.4030
0.0315 0.0040 0.4648
0.0783 0.0201 0.5040
0.0627 0.0169 0.5007
-0.0682 0.0084 0.4043
0.0210 -0.0019 0.4943
0.1816 -0.1486 0.6289
-0.0494 0.0124 0.4411
-0.0777 0.0069 0.4248
-0.0440 0.0067 0.4601
0.0258 0.0010 0.5342
-0.0216 0.0058 0.4952
0.0241 0.0010 0.5439
0.0483 -0.0061 0.5839
0.0294 -0.0019 0.5767
-0.0154 0.0032 0.5407
-0.1084 -0.0053 0.4734
-0.0987 0.0035 0.4808
0.1263 -0.1038 0.7009
-0.0981 -0.0053 0.4971
-0.0417 0.0056 0.5500
-0.0110 -0.0153 0.5894
-0.0629 0.0012 0.5417
-0.1023 -0.0016 0.5077
-0.1260 -0.0071 0.4882
-0.0114 -0.0043 0.6214
-0.1249 0.0013 0.5112
-0.1447 0.0013 0.4987
-0.0835 -0.0035 0.5632
-0.0632 -0.0032 0.5852
-0.1036 -0.0050 0.5476
-0.1168 0.0004 0.5365
0.0018 0.0193 0.6421
-0.0343 -0.0049 0.6281
-0.1352 0.0040 0.5247
-0.0886 0.0226 0.6037
-0.0966 -0.0081 0.5850
-0.0548 0.0141 0.6214
-0.0640 0.0189 0.6180
-0.0495 -0.0055 0.6668
-0.1179 0.0000 0.5872
-0.0738 0.0053 0.6415
-0.0500 0.0133 0.6614
-0.0648 0.0274 0.6250
-0.0579 0.0253 0.6666
-0.1377 0.0035 0.6071
-0.0929 0.0013 0.6579
-0.1563 0.0004 0.5893
-0.0524 0.0113 0.4153
-0.0877 0.0500 0.3299
-0.1506 -0.0057 0.5154
-0.0701 0.0213 0.3743
-0.0820 -0.0136 0.6404
-0.0051 0.0118 0.1921
-0.0040 -0.0085 0.2242
0.0653 0.0183 0.4165
0.0053 0.0819 0.4196
0.0014 0.0096 0.4549
-0.1145 0.0346 0.3931
-0.0167 0.0141 0.5941
-0.1359 -0.0056 0.4971
-0.1622 -0.0002 0.5462
0.2928 -0.0240 0.3204
0.1681 -0.0181 0.2666
0.1670 -0.0432 0.2582
0.0663 -0.0061 0.2169
-0.1688 0.0074 0.5336
-0.0169 0.0063 0.3854
-0.0874 0.0093 0.3668
-0.1339 0.0034 0.4661
-0.0966 0.0014 0.5010
-0.0837 0.0006 0.5057
-0.0565 0.0059 0.5254
-0.1266 0.0083 0.6193
-0.0846 0.0034 0.4540
-0.1515 0.0097 0.6093
-0.1736 0.0037 0.5889
-0.0440 0.0510 0.6757
-0.0282 0.0598 0.6876
0.1060 -0.0937 0.8056
0.0123 0.0087 0.6788
-0.0011 0.0186 0.6009
-0.1294 -0.0010 0.4705
-0.0236 0.0022 0.2317
-0.1148 0.0318 0.3967
-0.0868 0.0048 0.4166
0.0896 -0.0088 0.5569
-0.0898 0.0152 0.3502
-0.0839 0.0093 0.5368
0.0362 0.0234 0.6343
-0.1208 0.0210 0.6393
-0.1450 0.0280 0.5992
-0.0174 0.0535 0.6690
-0.1037 0.0069 0.5907
0.0168 0.0398 0.6536
-0.1050 0.0005 0.5551
0.0305 0.0323 0.6600
0.0017 0.0073 0.6260
0.0284 0.0160 0.3969
0.0427 0.0032 0.4253
0.0967 0.0112 0.4685
0.0019 0.0063 0.5847
0.0939 -0.0023 0.4959
-0.0964 0.0228 0.4197
0.2142 0.0089 0.4148
0.0626 -0.0105 0.5316
0.2064 -0.0092 0.3546
-0.0652 0.1021 0.5569
0.1538 0.0289 0.4740
0.1202 -0.0100 0.5424
0.0979 0.0214 0.4998
-0.0911 0.0185 0.6354
-0.0470 0.0171 0.5820
0.2172 0.0178 0.3900
0.0299 0.0076 0.3556
0.1981 0.0064 0.3900
-0.0088 0.0103 0.5358
0.0549 0.0215 0.3482
0.1529 0.0227 0.4350
-0.0310 -0.0033 0.5844
0.2778 -0.0645 0.3130
0.0851 0.0337 0.3301
-0.2771 0.4380 0.1546
-0.0112 0.0231 0.5268
-0.1213 0.0271 0.4310
-0.1193 0.1461 0.4455
0.0120 0.0091 0.6645
0.3990 -0.0374 0.3703
0.1388 0.0244 0.3289
0.2931 -0.0032 0.4458
0.1401 -0.0238 0.3598
0.0917 -0.0139 0.3348
-0.2334 -0.7619 -0.0038
0.1597 0.0084 0.4231
0.0419 -0.0241 0.3312
0.2543 0.0124 0.5054
0.1426 -0.0161 0.4353
0.2130 0.0170 0.5279
0.0568 0.0071 0.4498
-0.2167 -0.0114 0.2406
0.0663 0.0186 0.4932
0.0856 -0.1096 0.5002
-0.0972 0.0202 0.3627
0.0980 0.0151 0.5341
0.0841 0.0050 0.5994
0.1219 0.0205 0.6534
-0.0497 0.0037 0.5080
0.0874 0.0028 0.6721
0.0244 -0.0102 0.6432
-0.1572 0.0246 0.4755
-0.0254 0.0230 0.5963
0.0657 -0.0076 0.7688
-0.1214 0.0190 0.5617
-0.1113 -0.0138 0.6315
0.0146 0.0118 0.7718
-0.0476 0.0392 0.6650
-0.0598 0.0320 0.6986
-0.1597 0.0023 0.6004
-0.0086 -0.0140 0.2218
0.0341 -0.0152 0.4153
0.1814 -0.0213 0.6455
0.1671 0.0247 0.6397
-0.0307 -0.0247 0.2036
0.1521 0.0010 0.3794
0.1902 -0.0127 0.4272
0.1283 -0.0082 0.3722
0.2430 -0.0117 0.5005
0.0925 0.0091 0.4076
0.1112 -0.0044 0.4647
0.0353 -0.0270 0.4183
-0.0067 -0.0002 0.3973
-0.0514 0.0006 0.3625
0.0683 -0.0061 0.5011
0.0427 -0.0014 0.4936
-0.1272 0.0160 0.4266
-0.1068 0.0071 0.4624
0.1542 -0.0047 0.7574
0.1183 0.0171 0.7273
-0.1128 0.0043 0.4976
-0.0943 -0.0054 0.5933
-0.1659 0.0141 0.5142
-0.1562 0.0272 0.5528
-0.1475 -0.0062 0.6435
-0.1651 -0.0030 0.6241
0.0329 0.0072 0.5723
-0.0273 0.0022 0.7091
-0.0328 0.0044 0.2401
0.0963 -0.0096 0.6814
0.0153 0.0024 0.2598
0.3437 -0.0147 0.3625
0.2563 -0.0283 0.3809
0.1461 -0.0272 0.3186
0.1576 0.0035 0.4498
-0.0253 0.0142 0.7262
-0.1208 0.0370 0.6455
0.0583 -0.0201 0.2126
0.0302 -0.0057 0.2719
0.0623 -0.0221 0.3570
-0.0474 0.0022 0.2851
0.0219 -0.0065 0.3541
-0.0133 0.0073 0.3781
0.0361 -0.0131 0.4442
-0.0198 0.0069 0.3944
0.0751 0.0071 0.5015
0.0027 0.0152 0.4743
-0.0581 0.0168 0.4239
-0.0432 0.0186 0.5332
-0.1193 0.0241 0.4603
0.0037 -0.0057 0.5931
-0.0550 0.0089 0.5863
0.1278 -0.0915 0.7752
0.0788 0.0277 0.7096
0.0512 0.0330 0.7394
-0.0825 -0.0025 0.6070
0.0889 0.0099 0.8098
-0.1134 -0.0211 0.6074
-0.1506 -0.0014 0.5716
-0.1931 0.0822 0.4803
-0.0291 0.0244 0.7404
-0.1591 0.0279 0.5710
-0.1167 0.0134 0.6776
-0.0864 -0.0613 0.7369
-0.0849 0.0974 0.6531
0.0588 0.0031 0.6209
-0.0069 0.0299 0.5808
0.0276 0.0100 0.5804
-0.0017 0.0043 0.5463
-0.0366 -0.0559 0.5380
0.1172 -0.0013 0.8043
-0.0778 0.0396 0.6483
0.1759 0.0006 0.3086
0.1019 0.0234 0.2792
0.1668 -0.0242 0.3019
0.1572 -0.0180 0.3456
0.1158 -0.0145 0.3866
0.2508 0.0010 0.5507
0.3760 -0.0472 0.4737
0.3786 -0.0860 0.3292
0.1011 -0.0124 0.2941
-0.0026 -0.0051 0.2419
0.0802 -0.0126 0.3151
-0.0432 0.0081 0.2643
-0.0122 0.0014 0.3000
0.0919 -0.0166 0.3926
0.0612 -0.0051 0.3664
-0.2645 -0.7210 0.0077
0.0201 -0.0138 0.3803
-0.0743 0.0018 0.3407
-0.0527 -0.0004 0.3849
-0.0600 -0.0070 0.4143
0.1487 -0.0073 0.5805
0.0750 -0.0142 0.5568
-0.0218 -0.0121 0.4764
-0.3301 -0.7428 0.2150
-0.0066 -0.0063 0.5706
0.0734 0.0104 0.6713
-0.0374 -0.0056 0.6476
-0.1108 0.0051 0.5948
-0.1538 0.0325 0.5273
-0.0252 0.0283 0.7257
-0.1434 0.0017 0.6101
-0.1265 -0.0062 0.6661
-0.1653 0.0248 0.6153
0.0730 0.0123 0.7880
0.0337 -0.0093 0.6169
-0.0485 0.0137 0.7295
-0.2071 0.0047 0.6055
-0.0173 -0.0029 0.4094
0.0433 -0.0050 0.4903
-0.0032 -0.0097 0.6480
-0.1332 0.0455 0.6416
-0.1275 0.0273 0.6504
0.0761 0.0166 0.6101
-0.0400 0.0532 0.2773
0.2220 0.0071 0.4021
-0.0599 -0.0188 0.6030
-0.1735 -0.1000 0.7477
0.1611 -0.1165 0.6821
-0.0608 -0.0027 0.3515
-0.0851 0.0094 0.5759
-0.8233 -0.6581 0.0840
-0.0099 -0.0096 0.6738
-0.9455 -0.0561 0.0791
-0.7963 -0.4239 0.1000
-1.0307 -0.2913 0.0916
-0.0065 0.0140 0.6581
-0.0324 -0.0077 0.3339
-1.0820 -0.4107 0.0575
-0.8739 0.0154 0.1891
-0.7736 0.2788 0.2282
0.1209 -0.0040 0.7535
-0.8803 0.1542 0.0067
-1.2018 -0.6065 0.0955
0.1515 0.0018 0.5639
-0.5726 -0.4725 -0.2046
-0.6140 -0.5180 -0.1579
-0.3485 -0.5143 -0.0219
-0.7027 -0.7177 -0.1204
-0.6825 0.3144 -0.0907
-0.7938 -0.4864 -0.0766
-0.4848 -0.6226 -0.2251
-0.2636 -0.6663 0.0836
-0.4341 -0.7045 0.0441
-0.2607 -0.6562 0.1536
-0.3333 -0.5351 0.1949
-0.7312 -0.8626 0.3533
-0.3872 -0.7004 -0.0269
-0.7392 -0.5136 0.2347
-0.7316 -0.6729 0.4430
-0.1616 -0.7008 -0.3798
-0.6922 -0.4865 -0.3690
-0.5065 -0.6731 -0.4100
-0.6065 -0.5832 -0.3973
-0.6296 -0.3967 -0.2761
-0.7356 -0.6913 -0.3317
-0.2316 -0.5561 -0.1927
-0.5895 -0.3256 -0.1956
-0.1616 -0.6355 -0.0685
-0.9278 -0.5978 -0.1218
-0.9311 -0.4551 0.0367
-0.8976 -0.7607 -0.4376
-0.7574 -0.7441 -0.4023
-0.7562 -0.7695 -0.2740
-0.7468 -0.6536 -0.1625
-0.4418 -0.7133 0.3049
-0.7832 -0.7009 0.4424
0.0635 -0.6324 -0.1718
-0.7375 -0.7413 -0.2710
-0.4550 -0.7122 0.0838
-0.1993 -0.0377 -0.0322
-0.1541 -0.0916 -0.0445
-0.6090 -0.5055 -0.1112
0.1480 -0.5683 -0.4469
0.3365 -0.6957 -0.4726
-0.0368 -0.7200 -0.2117
0.0232 -0.6323 -0.2113
-0.0933 0.0760 0.1825
0.3103 -0.4811 -0.3758
0.1968 -0.4277 -0.3568
-0.7907 -0.7571 0.0982
-0.8470 -0.8020 -0.0279
-0.8015 -0.1464 -0.1585
-0.6519 -0.8314 -0.2236
0.0240 -0.5713 -0.1947
-0.3887 -0.6874 -0.2884
-0.7196 -0.5890 -0.3043
-0.7398 -0.8140 -0.3131
-0.3739 -0.6426 -0.5212
-0.4114 -0.6844 -0.2669
-0.1645 -0.6709 -0.2393
-0.4994 -0.7285 -0.1489
-0.3231 -0.7562 -0.0974
-0.4902 -0.5527 -0.0076
-0.7284 -0.6748 0.4603
-0.9119 -0.5547 0.1107
-0.5212 -0.6597 0.2433
-0.9446 -0.7410 0.2006
-0.5227 -0.6706 0.4339
-0.7356 -0.7001 0.3773
-0.5088 -0.6891 0.4130
-0.7966 -0.7990 -0.3030
0.2797 -0.7432 -0.4308
-0.1797 -0.7243 -0.2338
0.0210 -0.7599 -0.1673
-0.0867 -0.7446 0.1397
-0.9734 -0.7405 0.0521
-0.9087 -0.7680 0.3751
-0.6988 -0.7582 -0.2165
-0.5228 -0.8596 0.7116
-0.4616 -0.6527 0.5235
-0.6937 -0.6922 0.2371
-0.4492 -0.6513 0.2327
-0.6096 -0.6809 0.2138
-0.5081 -0.7388 0.0775
-0.2001 -0.6758 -0.0295
0.0422 -0.5663 -0.2147
-0.6213 -0.4636 0.3058
-0.0989 -0.7164 -0.6571
-0.2903 -0.6554 -0.5879
-0.0697 -0.8905 -0.4531
-0.6909 -0.7050 0.2851
-0.3745 -0.6939 -0.2886
-0.7250 -0.6132 -0.2433
-0.6042 -0.6269 -0.1384
-0.4515 -0.7454 0.0286
-0.7266 -0.7280 -0.0702
0.2823 -0.6333 -0.5744
-0.3381 -0.7307 -0.1515
-0.7356 0.1344 -0.1017
-0.7656 -0.7009 -0.5188
-0.2649 -0.6136 -0.6122
-0.3806 -0.6933 -0.4831
-0.4303 -0.6593 0.2539
-0.2759 -0.5828 -0.5204
-0.2492 -0.6602 0.0073
-0.1544 -0.6285 -0.0352
-0.5727 -0.1678 -0.4352
-0.7934 -0.5477 0.3190
-0.9587 -0.1782 0.1311
-0.8881 -0.1002 0.1134
-0.8424 0.1324 -0.3096
-0.7718 0.1868 -0.2595
-0.9643 -0.7320 -0.0203
-0.8170 0.1467 -0.1377
-0.8722 -0.7221 0.3563
-0.2978 -0.5858 0.1356
0.3269 -0.6743 -0.2881
-0.7498 -0.9004 0.3417
-0.6776 -0.6861 0.4950
-1.2214 -0.7538 0.3897
-1.1859 -0.7444 0.3331
-1.1336 -0.6391 0.1977
-0.5734 -0.6406 0.3000
-0.9370 -0.6707 0.1921
-0.3648 -0.8304 -0.4633
-0.9215 -0.6367 0.1234
-0.5076 -0.6545 -0.1879
-0.6924 0.4723 -0.2562
0.0842 -0.3750 0.1704
-0.7270 -0.6695 0.4067
-0.9623 -0.1052 0.1190
-0.7593 0.4363 -0.1737
0.2633 -0.5170 -0.3840
0.0594 -0.6529 -0.2295
-0.7832 0.4535 -0.2733
-0.4923 -0.6074 0.4811
-1.1787 -0.7625 0.3863
-1.0731 -0.6984 0.3795
-0.7416 -0.6976 0.4287
-0.7497 -0.6305 0.3661
-1.1606 -0.7592 0.3175
-0.1341 -0.7259 -0.4719
-0.7289 -0.7764 0.4101
-0.4048 -0.6324 0.3879
-1.0259 -0.7017 0.1694
-0.7878 -0.6687 0.0769
-0.7275 -0.6877 -0.2960
-1.0064 -0.6734 -0.2951
-0.6478 -0.6818 -0.2163
-0.6132 -0.6285 -0.1813
-0.5675 -0.7342 -0.1497
-0.3326 -0.7163 -0.1026
-0.4133 -0.7049 -0.0689
-0.4397 -0.6399 -0.5389
-0.4074 -0.8316 0.1041
-0.9270 -0.6687 0.0394
0.4998 -0.7226 -0.3112
-0.0311 -0.5348 -0.3225
0.2184 -0.5040 0.2319
-1.0332 -0.7106 0.0810
-0.8330 -0.6362 -0.0918
-0.9701 -0.7174 -0.4461
-1.1121 -0.7122 0.1333
-0.4714 -0.6581 0.0110
-0.7427 -0.6848 -0.0485
-0.6730 -0.7206 0.2573
-0.7259 -0.6966 -0.0708
-0.3743 -0.6133 -0.4881
-0.6897 -0.1869 -0.1747
-1.0692 -0.6993 0.3035
-0.7899 -0.6676 -0.2586
-0.6209 -0.4576 -0.5508
-0.3383 -0.4651 -0.1179
-1.0536 -0.7175 0.2598
-0.9971 -0.6509 -0.3319
-1.0034 -0.6545 -0.3823
-1.0502 -0.6322 -0.3631
-0.8949 -0.6811 -0.0134
-0.4935 0.1421 -0.2411
-0.5835 0.0327 -0.0829
-0.1220 -0.5773 -0.2416
-1.0400 -0.7188 -0.4255
-0.9254 -0.7949 0.1947
-1.0235 -0.7342 -0.3511
-0.6744 -0.6611 0.1533
-0.3230 -0.9441 -0.0505
-0.3617 -0.6280 0.0885
-0.8427 -0.7033 -0.3958
-0.6141 -0.6922 -0.2723
-0.3974 -0.6701 -0.0299
-0.8453 0.3582 -0.1445
-0.4976 -0.7230 0.4304
-0.7717 -0.4286 -0.2575
-0.7345 -0.7394 -0.2360
-0.8884 0.3340 -0.1318
-0.4480 -0.0686 -0.3706
-0.2485 -0.7641 0.3985
0.4574 -0.6197 -0.4076
0.1936 -0.5403 -0.5461
-0.2855 -0.4614 -0.5572
-0.4620 -0.8436 0.5118
-0.5425 -0.8919 0.2658
-0.7402 -0.6277 0.0866
-0.6371 -0.7626 -0.1896
-0.5186 -0.6861 0.1899
-0.7761 -0.7681 0.1057
-0.7826 -0.6981 0.2454
-0.7827 -0.6905 -0.0851
-0.1997 -0.7798 -0.0363
-0.4733 -0.6342 -0.2150
-0.7065 -0.7668 -0.7028
-0.3938 -0.5934 0.3254
-0.6842 -0.7509 -0.6862
-0.7016 -0.7248 -0.2731
-0.0222 -0.0027 0.2963
-0.0125 0.0323 0.3990
-0.6945 -0.7884 0.3221
-0.0282 0.0298 0.2916
0.0576 -0.0165 0.2953
-0.9593 -0.7136 0.0764
-0.4251 -0.7107 0.2598
0.0021 0.0032 0.2309
0.0728 0.0229 0.2418
0.0127 0.0112 0.2039
-0.8300 -0.7561 -0.0768
-0.4257 -0.7481 -0.0013
-0.8012 -0.7021 -0.1312
0.0357 -0.0094 -0.1902
-0.0432 0.0646 -0.1790
-0.7634 -0.7610 -0.1553
0.0819 -0.0137 -0.1653
-0.5579 -0.7660 -0.1447
0.2433 -0.0939 -0.1621
-0.4679 -0.7185 -0.2226
-0.6183 -0.8087 0.2266
-0.6347 -0.6227 0.1478
0.0487 -0.0381 0.4449
-0.1724 0.0911 0.3371
-0.8234 -0.7351 0.2094
-0.9406 -0.7049 0.0583
-0.8950 -0.6439 -0.0111
-0.9059 -0.6809 0.0874
0.1369 -0.7949 -0.2256
0.1048 -0.6415 -0.2226
0.1089 -0.5967 -0.1415
-0.4578 -0.8188 -0.1880
-0.1480 -0.6015 -0.0799
0.0414 0.0007 -0.2000
-0.4292 -0.8065 -0.3088
-0.7750 -0.7026 0.0692
-0.7621 -0.6253 0.1805
-0.7569 -0.7374 0.1023
0.1357 -0.0230 0.3269
-0.4023 -0.6933 0.2434
-0.6242 -0.7028 0.1585
0.0346 0.0201 0.3231
-0.8405 -0.8038 0.0204
-0.5639 -0.6531 0.1379
-0.9258 -0.6575 0.2226
0.5010 -0.5570 -0.2473
-0.3385 -0.7342 -0.5180
-0.7210 -0.7399 -0.1917
-0.7870 -0.7617 -0.2538
-0.6802 -0.9156 0.1812
-0.1613 0.0278 0.4803
-0.1046 0.0024 0.4660
-0.8690 -0.6516 0.3426
-0.1040 0.0118 0.5144
-0.9383 -0.7410 0.2986
0.4166 -0.7714 -0.3108
0.2450 -0.0118 0.3050
-0.4546 -0.8287 0.4738
-0.8503 -0.8434 0.2433
-0.0021 0.0181 0.2158
-0.1574 0.0043 0.5613
-0.1057 -0.6255 -0.2336
-0.1192 -0.7587 -0.2433
0.3192 0.0234 -0.0616
-0.2884 -0.7914 0.1224
-0.0404 -0.0013 0.3913
-0.7706 -0.7802 0.4272
-0.0612 0.0059 0.5694
-0.7695 -0.8290 0.2517
-0.7007 -0.7837 0.4613
0.1871 -0.0279 0.8461
0.3014 -0.5484 -0.3807
-0.5722 -0.8723 0.2664
-0.1461 -0.0264 0.7090
0.1456 0.0680 0.4927
-0.1084 -0.0091 0.6635
-0.0144 0.0067 0.2628
0.2359 -0.0051 0.4632
0.1147 -0.0314 0.4674
0.2227 -0.0322 0.6725
0.2843 -0.0404 0.6899
0.3562 -0.0146 0.3712
-0.8501 -0.7169 0.5175
-0.1648 -0.0239 0.6827
-0.0001 -0.0408 0.7699
-0.0502 -0.0310 0.7248
0.0853 -0.0064 0.7491
0.0378 -0.0124 0.5683
0.0962 -0.0497 0.8137
-0.3321 -0.8290 -0.0122
0.0842 0.0823 1.1279
0.0622 -0.0388 0.7966
-0.0553 0.0060 0.4658
0.0759 -0.0115 0.5004
-0.0111 0.0106 0.4077
0.2841 -0.0237 0.3588
0.3237 -0.0200 0.3841
0.2473 0.0024 0.3725
0.7258 0.0009 0.6921
0.1282 0.0372 0.4539
0.0133 0.2639 1.0813
-0.0846 0.2919 1.0090
-0.3793 -0.8832 1.0448
0.0270 0.0719 0.4995

