1.5342 -4.9531 4.7434
1.3851 -3.8747 2.8864
0.5055 -3.0084 5.4971
-0.4235 -0.9390 4.5883
-0.9093 -1.6283 0.8208
-0.4253 -0.3067 1.2256
0.1186 -0.2882 2.0442
0.1525 -0.4800 1.6117
-0.0865 -0.3095 0.9841
-0.4726 -0.2695 1.2400
-7.1258 -3.0572 9.8593
0.1031 -0.7650 3.3622
-0.2813 -0.3149 1.8146
-1.9332 -0.9472 2.9585
-2.1277 -0.9396 3.0173
0.0139 -0.8305 3.5143
-0.3970 -0.2312 0.7716
0.2711 -0.6790 3.0290
-0.9893 -4.1834 5.4989
-1.3090 -0.8145 2.8470
0.2459 -0.5457 1.3096
-8.7028 -3.6263 10.9903
0.1328 -0.3621 1.3373
-1.6171 -1.6132 3.1954
0.4128 -1.3448 3.5634
-0.3488 -0.3028 1.0261
0.4355 -1.1148 3.2611
0.3393 -1.4081 4.0634
0.3307 -1.0176 0.9109
0.0162 -0.1715 0.0953
0.3505 -2.2979 3.4412
-0.3442 -1.0758 3.4355
-0.3953 -0.3747 1.3732
-2.3023 -1.4422 2.9572
0.2150 -0.5064 1.3321
-0.3213 -1.2192 3.2690
-1.0928 -4.7063 1.4526
-0.6577 -0.4160 1.2134
0.1674 -0.7687 3.2797
0.5802 -3.5160 6.2339
-0.8107 -0.4599 1.1376
-1.5524 -0.9539 3.3593
-0.7335 -0.4359 1.1905
0.1409 -0.3978 1.4051
-1.4013 -1.1258 3.5266
0.0422 -0.2055 0.6710
-0.1451 -0.1306 0.7688
-0.7720 -1.4617 3.7327
-1.1155 -1.4066 3.2195
-0.5355 -0.9590 1.0078
-2.2292 -1.2602 2.9750
0.1888 -0.8469 3.6429
0.2745 -0.5530 2.1934
0.1901 -0.7941 3.4866
0.1145 -0.3494 1.3323
0.4468 -1.2808 3.8944
0.0613 -0.2038 0.5530
0.1777 -0.3917 1.3739
-0.5486 -0.4146 1.3592
0.0627 -0.1832 0.6243
0.1736 -0.3325 1.3432
0.1575 -0.8068 1.2288
-1.1497 -3.7087 2.1013
-1.4377 -1.5408 3.3804
-0.8815 -3.8335 1.1556
-0.5694 -0.4254 0.9989
-1.1127 -0.7451 1.9200
-0.7312 -0.5606 1.2948
-0.3530 -1.0882 4.2998
-0.2135 -0.6750 1.2693
-0.2358 -0.2581 0.6613
-0.5795 -0.2475 0.8610
-0.6118 -0.2670 0.8413
0.2034 -0.4523 1.3919
0.1543 -0.4994 1.4363
0.5926 -3.3141 2.2899
0.4466 -2.5215 0.9855
-0.0285 -0.2562 0.5712
0.0248 -0.5585 0.7730
-0.1422 -0.2685 1.1168
0.0954 -1.0408 0.6125
-0.3962 -0.3940 2.1550
-0.1951 -0.2993 1.0481
-0.1913 -0.3531 0.9170
-0.2139 -1.4579 0.8446
-0.3876 -0.6732 0.8293
-0.8481 -0.5244 1.8816
-0.2537 -0.8685 0.5962
-0.0301 -0.2941 0.2877
-1.3488 -1.8610 2.5991
-0.4995 -0.8857 0.9507
-0.0882 -0.5922 0.9264
0.1694 -0.3472 1.4449
0.8373 -3.2876 2.2731
0.2909 -3.5132 1.8605
-0.1034 -1.9982 2.6868
0.0039 -3.0871 1.0326
-1.2165 -1.6932 4.4240
-0.6745 -0.4733 1.9125
-0.5357 -0.5215 1.2740
-0.5579 -0.4337 1.2373
-0.6209 -0.5570 1.2869
-0.1322 -0.4139 0.2107
-0.8160 -0.4816 1.2674
0.2556 -1.1778 1.6574
-0.0830 -0.3685 1.4127
-0.1252 -0.5515 1.5806
-0.1823 -0.8149 0.3376
0.1631 -0.8375 3.2033
-0.1503 -1.2499 4.0793
0.5135 -2.5017 1.5883
-0.5373 -1.0078 3.9624
0.0031 -0.7183 0.9887
-0.1021 -0.7246 1.2404
-0.4747 -0.3342 1.6299
-0.4944 -3.6740 1.2027
-0.6019 -1.1182 1.7319
-2.5934 -1.9255 3.0796
-0.5508 -0.3441 0.8985
-0.8199 -0.4682 1.2737
-0.3713 -0.8251 0.7011
0.1820 -0.9314 1.4097
-0.3089 -0.4650 1.1835
0.9021 -4.0632 5.8781
0.5406 -3.2894 2.7648
-1.3493 -1.6232 3.8694
-0.4617 -3.8794 1.2490
-1.7959 -1.6183 3.5568
-0.2985 -0.5768 0.7467
-0.2295 -0.2875 1.4816
-0.7494 -1.4036 3.9460
-1.8657 -1.4371 3.5915
0.0633 -0.1583 0.4176
-0.4707 -0.6747 0.8812
-1.4656 -2.3045 3.0799
0.2314 -0.6252 0.4603
-1.4080 -3.4231 4.7608
-0.3067 -0.8588 1.1097
-0.3774 -0.8812 1.1127
-0.4817 -1.0344 1.2038
-0.2685 -0.5945 0.4070
-0.7791 -0.4463 1.2269
-0.8849 -1.4812 1.5788
0.2517 -0.5552 1.6107
0.1876 -0.5162 1.8839
0.0705 -1.0916 0.6318
-0.4744 -0.9396 1.2215
-0.4465 -1.0732 0.7179
-0.7076 -3.2408 3.6080
-0.2673 -0.7853 1.3896
-1.1613 -2.5678 3.9299
-0.0438 -0.5060 0.2856
-0.7701 -0.5364 1.1796
0.0196 -0.6171 1.2947
1.0241 -3.9129 3.0376
0.1121 -0.7131 1.1750
-1.4385 -1.2685 3.6226
0.0211 -0.2337 0.2170
-0.1258 -0.2801 0.1980
-0.2836 -0.9766 0.5019
-0.7413 -0.4835 1.2395
-0.0837 -0.3358 0.2754
0.2431 -0.5009 2.2075
-0.2868 -2.4733 4.6106
-0.1983 -0.8613 1.4059
-0.2614 -0.9539 1.1836
-0.5020 -0.4691 1.3048
-1.4422 -0.7990 2.4221
-1.4946 -0.6444 2.1973
0.2924 -1.2023 1.6663
-1.4175 -1.5151 2.8752
-1.9929 -1.3694 3.4274
0.3041 -0.8289 0.7602
-0.0276 -0.1600 0.1689
0.1272 -0.3672 1.3583
0.2536 -1.0606 0.5493
-0.6787 -3.0862 11.2020
0.1632 -1.1111 0.6477
0.1631 -1.4951 1.0089
0.1106 -1.1384 0.6272
-0.1330 -0.6591 1.3065
-0.2984 -0.6045 1.6401
-0.5126 -0.4753 1.7328
-0.4314 -0.8840 1.1115
-0.5836 -0.5216 1.4602
-0.4756 -0.8455 1.0863
-0.7460 -0.4850 1.3927
-2.0455 -1.2273 2.5768
-2.1235 -1.0563 2.6842
-0.4127 -1.2546 0.3623
-0.4541 -0.4210 1.4768
-0.1193 -0.8618 0.4225
-0.2841 -1.1934 0.8771
-0.9449 -0.8780 3.1136
-0.0828 -0.3020 0.2163
0.1545 -0.9542 0.7589
0.6018 -1.5610 6.2689
0.1172 -1.7294 2.4291
-0.2894 -0.5063 1.7992
-0.0669 -2.6136 1.2161
-1.2043 -0.6626 3.3462
-2.0539 -6.2264 4.0926
-0.6930 -0.6251 1.5988
-1.9146 -3.0277 3.9051
-2.2146 -2.9454 3.9790
-2.0835 -1.1789 3.5664
-0.9230 -0.4419 1.4698
-1.0448 -0.7298 1.4971
0.0660 -0.4382 1.4889
-0.3508 -1.2821 1.8539
-0.5161 -0.3924 1.1906
-0.0156 -1.2755 0.8386
-0.6281 -4.9246 2.1477
0.0647 -0.3821 0.3393
-0.1017 -0.3975 0.2119
0.3901 -1.4345 1.4401
0.1638 -1.5621 2.4145
0.2338 -1.7594 1.2183
-1.0066 -4.6595 1.9657
-1.3776 -7.0594 2.6186
-0.6482 -0.4974 1.2299
-2.2268 -4.1682 2.7306
-0.8773 -0.4992 1.2200
-1.6528 -0.6548 2.1048
0.5120 -3.0641 5.0675
-0.5676 -2.9781 1.2543
-0.7550 -1.2541 1.3718
-1.1988 -0.6308 2.1193
-1.7804 -0.7185 2.3383
-0.1140 -0.2530 1.0727
0.1527 -0.5311 1.8956
0.1695 -1.2494 5.6000
0.5481 -2.2975 1.5171
-0.3574 -3.2570 5.5755
-0.2808 -3.7115 1.9987
-0.3384 -5.1886 2.3683
-2.0956 -1.3384 3.2963
0.1764 -1.2120 2.0183
-0.6573 -2.4825 0.9473
-1.2389 -0.5373 1.9936
-1.4708 -1.8094 1.5852
0.3339 -0.9359 2.8840
1.0550 -4.6742 7.7343
-1.0050 -3.7442 5.0027
-0.8875 -0.6082 2.7593
-1.2162 -1.1842 3.9167
-1.4382 -2.5603 4.2282
-1.0905 -2.3528 1.9521
-1.6867 -0.8472 2.6862
-1.7089 -2.9826 1.8985
-2.5972 -5.7764 2.0077
-0.1223 -0.5003 1.7925
0.0929 -2.5278 5.7602
0.2670 -2.5946 4.3589
0.1889 -3.1768 2.5572
-0.5694 -0.7577 2.1410
-0.7137 -1.6388 2.4630
-2.1295 -1.3890 3.3880
-1.6859 -0.7545 2.4246
-1.7427 -0.8114 2.4440
-2.4552 -1.2964 3.0973
1.1483 -3.2455 2.9187
1.6986 -5.2967 3.6104
1.0457 -3.3320 3.0231
0.2042 -6.8565 2.9887
-0.5178 -5.1224 2.2663
-1.2232 -7.5564 4.0214
-1.1971 -2.1614 2.8538
-1.5845 -3.1689 2.1020
-1.6160 -0.9857 2.2427
-2.0199 -0.9604 2.6965
0.2841 -2.9200 5.7085
-0.3990 -0.9417 4.8380
-1.4728 -0.8090 3.0081
-3.0500 -6.6684 4.2034
0.9747 -5.6721 4.5895
0.5960 -4.0996 2.8022
-0.3441 -0.5495 3.0203
-0.5876 -0.9606 2.8960
-0.7718 -2.2886 2.9864
-1.8317 -1.4205 3.4960
-2.1558 -4.2010 3.5838
-1.9408 -1.0243 2.9620
0.9871 -4.3543 6.3006
0.9894 -1.9266 6.9253
0.1859 -0.8426 3.5457
0.9270 -3.3050 4.1292
-0.8434 -2.1762 3.4393
0.1693 -0.2364 0.4642
-0.8411 -4.3905 3.0603
0.7614 -6.0516 4.3036
-0.8066 -1.6698 4.7862
-1.6794 -2.7228 4.7339
-1.7371 -7.5535 4.3410
-1.4940 -1.1647 3.5642
-1.3994 -1.0478 2.9908
-2.5422 -4.0211 4.1534
0.1110 -2.5807 5.6943
-1.0438 -3.2559 4.8073
-1.0994 -0.5259 1.6341
0.5927 -1.0390 6.0952
0.5016 -3.9513 5.9061
0.6207 -7.6982 4.0872
-1.0826 -6.5900 4.0516
-1.4560 -0.8916 3.1383
-2.0412 -1.3434 3.3716
0.3495 -3.2942 6.1352
0.3135 -7.2453 3.9213
-2.0366 -3.6582 4.6742
1.1889 -1.8357 7.1993
1.2016 -7.0129 3.4679
-1.1813 -0.8919 3.3975
-1.6712 -8.8604 3.6213
-2.3690 -3.8028 4.5486
-2.5744 -4.2802 4.4727
1.4482 -4.3335 2.4931
-2.0179 -0.8485 2.4964
0.4142 -1.0532 4.8715
-0.2809 -2.9207 5.7513
-0.0286 -2.8476 3.7469
-1.7177 -1.0005 2.8715
-1.8095 -1.3930 3.1382
-2.2184 -1.2517 3.3158
2.3392 -7.3841 3.5793
0.4412 -3.2256 3.9774
-2.1860 -1.2499 3.0880
0.7851 -6.0091 4.1090
-0.4166 -2.8375 4.1408
-0.9731 -2.5525 3.5039
-0.4434 -4.3072 1.6312
-0.8788 -5.8575 1.9388
-0.7807 -2.0041 1.8510
-1.1804 -5.3304 2.1336
-9.1243 -10.1866 15.6795
-2.1092 -4.7875 2.6591
0.5253 -4.0894 2.6690
-0.0742 -2.0847 2.3709
-0.9103 -3.0040 3.3779
0.3401 -1.5214 1.1886
-0.4596 -1.0332 5.6687
-2.3120 -1.9519 11.0650
-2.1984 -1.3574 3.3912
-2.4203 -1.6211 3.1053
-0.8285 -1.5571 3.5686
-1.2509 -1.3353 4.1284
1.8388 -4.8103 2.5805
1.4429 -4.0497 3.2654
0.9218 -4.5402 3.4274
0.3078 -2.1242 2.3951
-0.2152 -4.5131 2.5952
-0.7494 -2.5681 3.0712
-1.1504 -2.5521 3.4163
-0.9151 -2.0955 2.5561
-1.0021 -2.0668 2.4399
-1.1547 -4.4528 2.4672
-1.4119 -1.3127 3.1483
-1.0715 -2.1556 2.1451
-1.2579 -4.4794 1.3108
-1.6277 -4.6574 1.8122
-1.4905 -3.6305 1.9918
1.3524 -3.8820 2.8865
-0.6242 -2.0415 1.9553
0.8365 -2.7163 3.3430
0.4554 -2.0699 2.4754
0.2454 -2.8406 3.7857
-0.1273 -2.1080 2.3072
0.2582 -1.1749 0.0502
0.0158 -4.1540 1.8797
-0.5237 -2.1020 2.1373
-0.4316 -4.5804 1.6835
-4.6977 -21.8535 13.3011
-0.7028 -2.0662 2.4226
-0.7183 -2.1930 2.2150
-0.7033 -2.1059 1.9226
-0.9832 -3.6004 2.2156
0.4845 -1.9301 2.5459
-0.4784 -1.8897 2.0816
-1.3569 -2.7093 2.4864
-0.4127 -0.8448 3.7740
-1.0312 -1.5622 4.1154
-1.2562 -1.1028 3.9575
-3.4553 -1.5281 8.1041
-5.7715 -1.6757 7.7548
-0.1622 -0.7789 7.1307
-1.0639 -1.3721 4.3841
-1.2694 -0.8465 3.0498
0.9055 -1.3582 5.1873
2.4610 -19.5132 14.4097
0.5626 -4.5137 2.8171
-0.2663 -0.7422 4.0348
-0.7737 -0.7969 6.2651
-1.8588 -1.0745 9.4554
-0.8850 -0.6382 4.2057
-0.8223 -0.6310 3.6076
-0.8884 -0.6536 3.5398
-1.1185 -0.7112 3.8787
-0.9618 -0.6110 3.3158
-0.5980 -0.2691 1.9551
-0.6885 -0.3159 1.9034
-3.0331 -1.0263 6.2170
-1.0541 -0.6708 2.3341
-1.6352 -1.3491 2.9894
-1.8039 -4.3347 2.3067
-1.9883 -0.7967 3.0991
-1.7514 -0.7942 2.7163
1.1845 -1.8738 4.1352
-0.8102 -1.5455 3.0707
-1.4660 -1.2578 3.2443
-3.1510 -1.1755 5.9958
-1.4837 -1.0136 2.6556
-1.6052 -0.7639 2.7776
-2.0963 -0.6797 2.9466
-1.0677 -1.9011 2.4902
-0.4266 -4.1640 6.0952
-0.3592 -2.1062 2.3452
-0.4282 -2.0112 2.1949
-0.4677 -2.1946 2.3499
-0.5746 -1.9449 2.1964
-1.3882 -2.4289 2.7761
-0.9395 -1.9434 2.0334
0.6335 -0.7230 5.8226
-2.5652 -0.9897 6.8383
-2.2817 -0.8390 5.5456
-0.0673 -8.1113 17.8210
-0.0655 -0.3399 3.2042
0.1609 -5.9054 3.6632
-3.0880 -4.9065 14.4582
-0.6037 -1.0813 3.7787
-0.7728 -1.5775 3.0840
-0.9240 -4.6059 2.3431
-0.9473 -0.6688 2.5168
-1.0734 -0.6047 2.3364
-1.8517 -1.0394 2.8359
-2.0499 -1.1124 2.8331
-1.4749 -0.8787 3.5807
1.1642 -2.0164 5.0187
0.7994 -4.8583 2.2778
-0.4093 -0.7656 3.9724
-0.4068 -0.8885 3.7974
-0.3992 -1.3191 3.1171
-0.9307 -5.7688 2.7902
0.6692 -1.0674 6.0593
-0.5911 -0.4126 2.5070
-1.1513 -0.4020 1.6986
1.4035 -1.1699 14.3659
-0.4995 -0.6463 4.0125
1.4643 -1.5730 6.0710
1.8245 -5.9059 4.7594
1.5371 -6.0669 3.3007
0.7172 -10.3779 21.0645
0.3205 -9.4256 20.4661
0.3969 -5.4708 4.3148
1.0345 -15.5242 9.2019
-0.2622 -2.6872 3.6926
-2.4524 -4.2602 8.7754
-1.2383 -5.9643 2.9597
-1.8987 -6.2767 3.5895
-0.7485 -0.8087 1.1480
-5.5169 -10.5746 6.7562
1.6763 -10.3133 17.5912
0.3771 -1.2137 0.8137
-0.2621 -0.8013 3.5403
1.0999 -0.6994 6.6017
1.7517 -2.1094 8.5527
-1.0029 -0.4835 7.5509
-0.4836 -0.3604 2.5473
-2.5526 -1.9472 4.4919
-3.4026 -1.5796 5.1024
-1.3937 -0.6853 4.1129
-1.8955 -1.0317 2.7359
-1.2832 -1.3083 11.7444
0.8762 -4.0707 3.9583
-1.3352 -5.9166 9.1302
-0.5969 -12.8318 5.7179
-2.0000 -6.5286 4.4968
-7.0079 -15.5897 9.0902
-3.1750 -8.2149 4.2011
0.7330 -10.8213 8.7555
0.8132 -2.5522 1.6892
-0.0220 -0.9559 0.1564
-0.2708 -2.4396 4.5683
-1.9278 -0.6589 4.1922
2.3469 -3.5590 10.1224
2.6326 -2.0110 11.1914
2.5522 -5.1741 20.3726
-2.8688 -1.8870 4.8261
3.0121 -3.6350 12.0458
2.8359 -3.8231 14.6699
-5.0332 -3.4268 11.1269
-5.3864 -1.3993 7.2016
7.5172 -23.4344 17.0958
6.3461 -21.3314 21.0680
0.3229 -1.5879 1.2144
0.3451 -10.5143 19.1919
0.5172 -0.8936 2.1889
-0.3583 -0.5650 4.6125
1.3128 -2.1293 4.9345
-0.9505 -0.5842 3.4045
-1.5932 -0.5978 3.7198
-4.5470 -1.4983 6.8009
-0.0671 -8.2972 19.2268
0.0655 -5.9472 14.6106
0.2509 -4.8400 10.9135
4.3340 -5.1899 18.9366
2.1877 -1.0546 11.8583
2.0232 -2.8049 12.4563
-0.9450 -0.4989 3.5438
0.1047 -1.4798 9.3784
-0.9052 -1.8047 7.2008
2.4017 -20.3445 12.3627
-2.2665 -0.7460 5.6040
-1.6594 -0.5606 3.8721
-1.0974 -6.8552 16.8624
-0.4283 -3.2983 10.3501
-1.9822 -1.5821 10.6896
-2.9662 -9.1591 18.2343
-2.3260 -5.2795 11.9436
-3.8742 -1.3833 7.4610
0.9635 -6.4096 12.9803
-1.4051 -2.9407 8.8864
-2.8002 -1.3013 6.0138
-3.7038 -1.2033 5.9728
-0.6681 -0.4477 4.0468
1.4572 -1.9926 7.8096
2.0649 -2.9321 15.5287
-6.7463 -9.3593 13.5047
-1.7969 -1.2964 10.3799
-1.6064 -16.9945 10.0183
1.5511 -6.0875 9.4381
-1.0052 -0.5308 3.8917
1.4494 -3.8228 16.8442
-4.4744 -2.5718 8.8295
-2.4011 -17.0471 7.4382
-2.2592 -0.9380 7.4136
-3.0867 -9.8316 17.8542
-1.4947 -0.7882 4.0601
-2.9367 -1.0074 6.4378
-4.3928 -7.9973 13.7701
1.6629 -3.6846 18.5161
-2.4542 -7.0252 16.7266
-2.0896 -0.7571 6.2490
-4.8418 -7.7779 13.9966
-4.7529 -9.1604 14.2098
-2.4806 -1.0048 7.1251
-9.7819 -4.3778 11.9415
-3.5353 -1.3831 7.4254
-1.9321 -0.9608 8.1981
-7.0057 -10.9923 16.5810
0.8170 -0.9065 10.6299
-1.3404 -0.9476 9.7908
1.0847 -3.0598 1.6783
-8.6934 -3.3657 10.3924
5.2181 -28.1689 19.7467
-1.4071 -1.2253 10.5040
2.2796 -13.0904 22.3382
4.0164 -6.0516 21.2720
-3.2111 -2.6849 10.5542
-4.3889 -0.7999 5.2841
-6.4010 -2.4255 8.7945
0.6001 -1.2167 14.6722
1.0265 -1.0172 -0.3584
2.2006 -30.7445 23.2877
-8.1317 -4.5364 12.7258
-9.1790 -4.1080 12.0666
-7.2520 -34.8887 15.2935
1.1802 -1.0486 0.8190
-2.7314 -1.0518 8.3011
-6.9304 -4.6318 13.4406
-11.2956 -28.0303 20.5484
0.1714 -28.3215 25.0831
-1.8583 -1.0992 10.8284
-7.4375 -9.8773 17.5339
-3.5025 -8.6179 3.8986
-0.3756 -0.8126 1.2413
-0.4767 -0.8188 1.2144
-0.2412 -0.7968 1.5045
-0.1299 -0.8238 1.3327
-0.2862 -0.8580 1.0468
0.0218 -0.8230 1.3774
0.0721 -0.1504 0.6688
-0.6380 -0.8373 1.1885
-0.5954 -0.7872 1.3554
-0.0900 -0.8246 1.3498
-0.2919 -0.8110 1.2677
-0.5314 -0.8105 1.1817
-0.6382 -0.8095 1.2956
-0.6869 -0.8465 1.0754
-0.0300 -0.8338 1.1756
-0.1794 -0.7808 1.4579
-0.5268 -0.8492 0.9560
-0.0532 -0.1232 0.0640
-0.4901 -0.8753 0.7012
-0.0474 -0.7944 1.5789
-0.1767 -0.8232 1.1045
0.0910 -0.1786 0.6569
0.1144 -1.6640 0.9187
-0.0251 0.0883 0.1035
0.0782 -0.8460 1.0851
0.1117 -1.6249 0.7139
-0.0108 0.0925 0.0639
-0.1823 -1.5886 0.5124
-0.4382 -1.5768 0.4375
-0.0270 0.0688 0.0610
-0.3680 -1.5452 0.6813
-0.0110 0.1025 0.0521
-0.0107 -0.8457 1.2106
-0.0767 -0.8468 1.3884
-0.2981 -0.8142 0.9670
-0.4727 -1.6419 0.9375
-0.0002 -0.8236 1.2459
-0.0322 -0.8433 1.3515
-0.2697 -0.8286 1.1496
-0.2752 -0.8406 1.0729
-0.0216 -0.0548 0.0822
-0.5774 -0.8415 1.1698
-0.6821 -0.8057 0.9687
0.0159 -0.2684 0.4307
-0.1078 -0.8680 1.2140
0.0379 -0.8208 1.0828
-0.1444 -1.6624 0.5495
-0.5108 -0.8375 1.0744
0.0304 -0.8557 1.2016
-0.2730 -0.8236 1.2437
-0.0613 -0.7976 1.3650
0.2126 -1.5691 0.7748
-0.5986 -0.8403 0.9566
0.2547 -0.9783 3.1825
0.2222 -0.8202 1.7663
-0.0994 -0.8304 1.5245
-0.3147 -0.8786 1.5731
-0.8132 -1.6741 0.6416
-0.9291 -1.5588 0.7730
-0.9146 -1.5128 0.8355
0.1627 -1.1126 0.9982
0.1852 -1.3472 0.9009
-0.1178 -0.8497 1.1340
0.0185 -1.6132 0.6769
-0.3433 -0.8425 1.2526
-0.5426 -0.8262 1.4012
-0.3937 -0.7745 1.0155
-0.5252 -0.8481 1.1954
-0.4344 -0.8200 0.9962
-0.4633 -0.7936 0.9713
-0.7715 -1.5443 0.6505
-0.2414 -0.8296 1.1956
-0.6049 -0.8045 0.8044
0.1307 -0.8749 2.6981
-0.2541 -0.8173 1.2965
-1.2776 -0.8896 2.3333
-0.0166 -0.7272 3.3296
-0.6892 -0.6887 2.9357
-1.2485 -0.6607 2.6523
-1.5007 -0.7120 2.7918
-1.5409 -0.9061 2.1637
0.2679 -0.9631 2.4094
-0.1371 -0.7626 1.2217
-0.5001 -0.7475 1.1662
-0.7275 -0.8653 1.0722
-1.8494 -0.9058 2.3714
0.3165 -0.7997 3.7694
-1.5232 -0.4559 2.0674
-1.1232 -1.0484 3.1257
-0.7403 -1.0602 3.2555
0.4336 -1.5108 0.7922
0.0002 -1.6308 0.7129
-0.6670 -0.7859 1.6636
0.2792 -0.7561 1.7727
-0.0465 -1.5816 0.6754
0.1812 -0.9582 0.8174
-0.3617 -0.8397 1.0350
-0.0237 0.0959 0.0918
-0.5258 -1.4425 3.8296
-1.4227 -0.9706 3.3149
-1.8891 -0.6108 2.4860
-1.9838 -0.6765 2.5445
-0.4886 -0.6726 3.2784
-1.5541 -0.8683 2.2663
-0.6216 -0.8200 0.7948
0.0327 0.0051 -0.0275
-0.3066 -0.4735 1.2613
-0.3220 -0.8363 1.2868
0.0593 -1.6572 0.8967
0.0614 0.0101 -0.1106
0.0424 0.0243 -0.1060

