-0.0130 -0.0107 -0.0013
-0.0516 -0.0395 0.0787
-0.1433 -0.1066 0.0773
-0.0081 -0.0037 -0.0045
-0.0463 -0.0323 0.0394
-0.0678 -0.0445 0.0351
-0.0609 -0.0417 0.0410
-0.0453 -0.0266 0.0279
-0.0426 -0.0287 0.0406
-0.0495 -0.0427 0.0371
-0.0610 -0.0733 0.0764
-0.0500 -0.0439 0.0455
-0.0370 -0.0201 0.0251
-0.0810 -0.0573 0.0659
-0.2068 -0.0704 0.1449
-0.1085 -0.0648 0.0929
-0.1098 -0.0647 0.0865
-0.0540 -0.0965 0.0610
-0.0701 -0.0408 0.0581
-0.2346 -0.0735 0.1450
-0.1464 -0.1045 0.0808
-0.0305 -0.0164 0.0267
-0.0408 -0.0273 0.0398
-0.0379 -0.0256 0.0367
-0.3933 -0.2422 0.3615
-0.0479 -0.0310 0.0429
-0.1616 -0.2032 0.2405
-0.1929 -0.1668 0.1470
-0.1878 -0.1662 0.1431
-0.3372 -0.4139 0.4927
-0.6922 -0.5522 0.8034
-0.2223 -0.2363 0.3420
-0.9608 -0.9070 2.1865
-0.2679 -0.3175 0.4437
-0.2171 -0.1834 0.1632
-0.2229 -0.1824 0.1746
-0.1389 -0.1865 0.2344
-0.4266 -0.3052 0.3624
-0.2459 -0.2016 0.1998
-0.1568 -0.1545 0.1596
-0.1622 -0.1806 0.2325
-0.1831 -0.1618 0.2169
-0.0514 -0.0707 0.1646
-0.1530 -0.1592 0.3257
-0.2137 -0.3060 0.3284
-0.0884 -0.0995 0.1770
-0.7891 -0.9217 0.8873
-0.0822 -0.0985 0.1681
-0.1946 -0.1429 0.2075
-0.3564 -0.3669 0.3961
-1.7171 -1.4585 1.1069
-0.0445 -0.0545 0.1374
-0.1803 -0.2940 0.4230
-0.0805 -0.1052 0.1378
-0.0930 -0.1144 0.2019
-0.0545 -0.0641 0.1588
-0.0338 -0.0459 0.1432
-0.1394 -0.2412 0.3098
-0.0936 -0.1770 0.2590
-0.1145 -0.1784 0.2365
-0.0957 -0.1152 0.2005
-0.6712 -0.4844 0.6311
-0.6694 -0.5819 0.4968
-0.1288 -0.1636 0.2641
-0.0467 -0.0584 0.1491
-0.0196 -0.0322 0.1290
-0.0483 -0.0601 0.1687
-0.3516 -0.4797 0.7271
-0.0748 -0.0655 0.2442
-0.1987 -0.2284 0.3188
-0.3085 -0.3897 0.4462
-0.1800 -0.1770 0.3412
-0.3086 -0.3958 0.4789
-0.1027 -0.1391 0.1864
-0.1157 -0.1984 0.2868
-0.1745 -0.2088 0.2930
-0.2118 -0.2732 0.3537
-0.2697 -0.1213 0.1746
-0.2068 -0.2014 0.2574
-0.1230 -0.1209 0.1910
-0.1496 -0.1603 0.2683
-1.2244 -0.9044 0.6307
-1.0207 -0.8769 0.5397
-0.9481 -0.9251 1.0430
-0.9379 -0.9375 0.7869
-0.1778 -0.2096 0.3104
-0.1891 -0.1525 0.1906
-0.9847 -0.9181 0.7047
-0.9764 -0.9283 0.7227
-0.8014 -0.9478 1.0329
-1.0503 -0.8878 0.5239
-0.3046 -0.2432 0.3973
-0.2530 -0.2235 0.3925
-0.5421 -0.4710 0.5540
-0.7669 -0.9653 0.9967
-0.1860 -0.1727 0.2078
-0.6478 -0.3822 0.4946
-0.2576 -0.2550 0.2888
-0.1349 -0.1278 0.2065
-1.1246 -0.9297 0.5557
-1.1881 -0.9348 0.5810
-1.1813 -0.9424 0.6212
-1.1254 -0.9340 0.6161
-0.0560 -0.0615 0.1511
-0.0329 -0.0510 0.1446
-1.1118 -0.9396 0.6414
-1.0900 -0.9368 0.6610
-1.1518 -0.9950 1.3959
-0.7976 -0.9897 1.1192
-1.1510 -0.8813 0.6144
-0.9668 -0.9123 0.9586
-1.1417 -0.9641 1.3297
-0.8637 -0.9110 0.8688
-0.2575 -0.3227 0.4888
-0.9583 -0.9593 1.0696
-1.0920 -0.9276 0.6396
-0.7997 -0.9769 1.0296
-0.9120 -0.9295 0.8022
-0.9463 -0.9393 0.7311
-1.1359 -0.9231 0.5313
-0.6959 -0.9169 1.0299
-1.6300 -2.0727 0.4961
-0.1691 -0.1536 0.1845
-0.1011 -0.0917 0.2119
-2.8681 -1.1371 0.9023
-1.6103 -1.9846 0.4018
-1.4311 -1.8251 0.4555
-0.7435 -1.8798 1.2570
-1.3054 -1.0150 0.7087
-0.9080 -0.9828 1.0702
-1.1688 -0.9337 0.6650
-1.1224 -0.9325 0.5181
-0.0369 -0.0383 0.1366
-0.0521 -0.0580 0.1604
-2.9465 -0.5197 1.3850
-0.4308 -0.2873 0.3499
-1.0133 -0.8956 0.6288
-1.1687 -0.9261 0.7028
-0.1224 -0.0863 0.1169
-0.7786 -0.9283 0.9156
-0.0591 -0.0645 0.1738
-1.1269 -0.9463 0.7369
-0.1112 -0.0784 0.1277
-0.2051 -0.1148 -0.0058
-0.7647 -0.9522 1.0524
-0.0889 -0.0943 0.1799
-0.0443 -0.0460 0.1321
-1.4644 -1.3381 0.9603
-0.0894 -0.0888 0.1367
-0.9014 -0.9233 0.9136
-0.3521 -0.2388 0.0098
-0.4554 -0.3982 0.4173
-1.0856 -0.9380 0.6670
-0.4135 -0.4731 0.4203
-0.4489 -0.3696 0.3865
-0.4482 -0.7859 0.3493
-0.1731 -0.1717 0.1987
-0.1683 -0.1593 0.1196
-0.1100 -0.0774 0.1292
-0.8547 -0.9331 0.8197
-0.0952 -0.0615 0.1145
-0.5065 -0.4942 0.3527
-0.1841 -0.2387 0.2729
-0.4161 -0.3303 0.3829
-0.2712 -0.2847 0.2361
-0.1495 -0.1644 0.2012
-0.3688 -0.3706 0.5192
-0.2975 -0.3512 0.3071
-0.1525 -0.7051 0.3447
-0.2536 -0.2005 0.2419
-1.4346 -1.0547 1.1694
-1.1075 -1.0221 1.0555
-1.1143 -1.0411 0.7517
-0.9219 -0.7890 0.4792
-1.1944 -1.0276 0.5834
-0.8323 -1.0958 1.1846
-1.0906 -1.0132 1.1117
-1.1850 -1.0495 1.4300
-0.8618 -1.0482 1.1118
-0.8381 -1.0512 1.0923
-0.8275 -1.0702 1.0886
-0.8944 -1.0552 1.0829
-1.0449 -1.0492 1.2979
-0.9256 -1.0295 0.9430
-0.9890 -1.0310 0.8766
-1.1595 -1.0274 0.6731
-1.0452 -1.0855 1.2689
-1.1610 -1.0492 0.7078
-1.0134 -1.0795 0.9384
-0.9926 -1.0801 0.9631
-0.9435 -1.0958 1.0490
-1.1375 -1.0345 0.6543
-1.1579 -1.0362 0.6300
-1.2858 -0.3392 0.3790
-0.3342 -0.4585 0.6038
-0.3321 -0.3448 0.3065
-0.2125 -0.2713 0.2538
-0.0895 -0.1412 0.1710
-0.3251 -0.4446 0.5418
-0.3064 -0.4469 0.5268
-0.1169 -0.1731 0.2087
-0.3178 -0.4383 0.5175
-0.4258 -0.4254 0.6047
-0.3446 -0.4166 0.4199
-0.3255 -0.3466 0.3007
-0.0921 -0.1531 0.1879
-0.2939 -0.7016 0.4576
-0.1236 -0.3039 0.0668
-0.2321 -0.7324 0.3783
-0.4178 -0.4256 0.6131
-0.6911 -0.7501 0.6879
-0.9325 -0.7626 0.4607
-0.1219 -0.7017 0.6212
-0.5911 -0.7512 0.7544
-0.7146 -0.7588 0.6422
-0.9570 -0.8063 0.4353
-0.6454 -0.7815 0.7533
-0.7743 -0.7872 0.6327
-0.8945 -0.7925 0.5558
-0.0056 -0.0508 0.0749
-0.6942 -0.7785 0.6981
0.0155 -0.0928 -0.0518
-0.0078 -0.1074 0.0485
-0.0245 -0.0942 0.0359
0.0655 0.0045 -0.0602
0.0376 -0.0453 -0.0271
0.0583 -0.0471 -0.0796
-0.0249 -0.0752 -0.0230
0.0085 -0.0462 -0.0535
0.0237 -0.0862 -0.0466
0.0563 -0.0050 -0.0747
0.0760 -0.0262 -0.0745
0.0586 -0.0442 -0.0549
0.0568 -0.0134 -0.0737
-0.4574 -0.4390 0.4414
-0.1280 -0.2371 0.1927
-0.0913 -0.0230 0.0246
0.0086 -0.0446 -0.0518
0.0412 -0.0138 -0.0611
-0.4306 -0.1462 0.2153
-0.0287 -0.0726 -0.0309
0.0053 -0.0569 -0.0298
-0.1131 -0.1490 0.0244
-0.0389 -0.3927 0.1767
-0.0494 -0.0884 -0.0040
-0.0140 -0.0610 -0.0436
-0.0046 -0.0837 0.0160
-0.1070 -0.1557 0.1277
0.0069 -0.2930 0.1707
0.0054 -0.0825 0.0090
-0.1782 -0.3127 0.2987
-0.2271 -0.3685 0.3415
-0.7450 -1.5662 0.0998
-0.0346 -1.6215 0.6592
-0.2006 -1.3628 1.1121
-0.2961 -1.5390 0.8167
-0.2031 -0.0710 0.2079
-0.1133 -0.1317 0.0625
-0.1105 -0.1081 0.0298
-0.2291 -0.2064 0.2168
-0.0690 -0.1220 0.1083
-0.1375 -0.1638 0.0977
-0.1422 -0.1855 0.1400
-0.1304 -0.1676 0.1119
-0.0664 -0.1166 0.0687
-0.1249 -0.2027 0.2037
-0.0881 -0.1480 0.1262
-0.0743 -0.1535 0.1347
-0.1015 -0.1154 0.0464
-0.0751 -0.1456 0.1426
-0.0833 -0.1010 0.0459
-0.0562 -0.0869 0.0263
-0.0639 -0.1230 0.0982
-0.0710 -0.1189 0.0841
-0.1527 -0.2006 0.1663
-0.0162 -0.0464 0.0187
-0.0176 -0.0498 0.0210
-0.0119 -0.0549 0.0236
-0.0105 -0.0490 0.0205
-0.1049 -0.1181 0.1289
-0.1871 -0.1602 0.1548
-0.0330 -0.0762 0.0727
0.0069 -0.0482 0.0144
-0.1235 -0.1554 0.2161
-0.9289 -0.7887 0.4565
-0.9857 -0.7897 0.4416
-0.9485 -0.7854 0.4077
-1.0274 -0.7913 0.4835
-0.9512 -0.7931 0.4400
-0.6281 -0.7776 0.7822
-0.5859 -0.7761 0.7890
-1.0703 -0.7808 0.5608
-0.4692 -0.7765 0.9744
-0.4205 -0.7851 0.9229
-0.9558 -0.7731 0.4196
-0.4400 -0.7981 0.9852
-0.9007 -0.7749 0.4373
-0.4377 -0.7862 0.9100
-0.5865 -0.7754 0.8244
-0.4350 -0.7806 0.9405
-0.9731 -0.7556 0.4483
-0.8217 -0.7626 0.5682
-0.8971 -0.7691 0.5066
-0.6524 -1.3729 0.0685
-0.4518 -0.7881 0.9565
-0.9201 -0.7739 0.4926
-0.8365 -0.7797 0.7858
-0.8140 -0.7816 0.6500
-0.7897 -0.7880 0.6038
-0.4546 -0.7848 0.9296
-0.4519 -0.7820 0.8895
-1.0526 -0.7722 0.5178
-1.0140 -0.7694 0.5519
-0.8875 -0.7774 0.4914
-0.8770 -0.7820 0.5873
-0.8585 -0.7635 0.5345
-0.5815 -1.4836 0.1907
-0.8284 -0.7668 0.6085
-0.8364 -0.7657 0.6776
-0.7721 -0.7758 0.6420
-0.8361 -0.7643 0.7145
-0.7524 -0.7777 0.6629
-0.7683 -0.7634 0.8185
-0.6469 -0.7804 0.7301
-0.4889 -0.7854 0.8995
-0.6283 -0.7798 0.7467
-0.5172 -0.7729 0.8516
-0.5900 -0.7783 0.9003
-0.5854 -0.7736 0.8580
-0.5725 -0.7792 0.8089
-0.5974 -0.7666 0.8015
-0.8503 -0.7605 0.6934
-0.7287 -0.7783 0.6350
-0.4785 -0.7966 1.0276
-0.5213 -0.7808 0.8238
-0.7670 -0.7742 0.6046
-0.4683 -0.7801 0.9076
-0.5766 -0.7578 1.6825
-1.1105 -1.4623 0.3016
-1.0173 -0.7691 0.8668
-0.1894 -1.4232 1.1135
-0.6879 -0.7770 1.8290
-0.7978 -0.7755 0.8144
-0.9045 -0.7772 0.7537
-1.0170 -0.7731 0.5159
-0.9821 -0.7745 0.5529
-0.6062 -0.7704 0.9445
-0.9458 -0.7780 0.5539
-0.9132 -0.7809 0.5901
-0.8327 -0.7634 1.0355
-0.7915 -0.7789 0.6271
-0.7373 -0.7742 0.7509
-0.8576 -0.7763 0.8376
-0.6478 -0.7579 1.1916
-0.3445 -1.4911 0.5371
-2.4162 -0.8168 1.6044
-2.3264 -0.7721 1.1768
-1.0378 -0.8213 2.2671
-0.9469 -0.7583 1.0430
-0.9393 -0.7732 0.7882
-0.5438 -0.7898 1.0227
-0.9421 -0.7758 0.4760
-0.9098 -0.7819 0.4762
-0.4995 -0.7743 0.8697
-0.5692 -0.7706 0.9066
-1.0248 -0.7734 0.5909
-0.6212 -0.7688 0.9290
-0.9847 -0.7744 0.5908
-0.8311 -0.7749 0.5032
-0.8927 -0.7901 0.4928
-0.6102 -0.7884 0.7611
-0.7000 -0.7672 0.8512
-0.8045 -0.7853 0.5467
-0.6816 -0.7749 0.7657
-0.7031 -0.7816 0.7178
-0.7821 -0.7634 0.7273
-0.7498 -0.7762 0.5895
-0.5196 -0.7656 1.0188
-0.5344 -0.7598 1.0357
-0.7624 -0.7759 0.5740
-1.0074 -0.7730 0.6077
-0.6145 -0.7635 0.8160
-0.5203 -0.7638 1.0570
-0.5634 -0.7961 1.1054
-0.8261 -1.4704 0.1805
-0.5534 -0.7791 0.8250
-0.9316 -0.7825 0.5358
-0.7960 -0.7749 0.5761
-0.8184 -0.7779 0.5984
-0.7498 -0.7732 0.6593
-0.7341 -0.7764 0.6791
-0.7204 -0.7896 0.6985
-0.5124 -0.7647 0.8783
-0.6945 -0.8024 0.7438
-0.6612 -0.7738 0.7447
-0.5823 -0.7673 0.8518
-0.6214 -0.7677 0.7732
-0.5466 -0.7660 0.8471
-0.5275 -0.7616 0.8592
-0.5441 -0.7573 0.8722
-0.5815 -0.7596 0.9500
-0.9893 -0.7849 0.4832
-0.9130 -0.7858 0.4429
-0.6800 -0.7784 0.6587
-0.9706 -0.7841 0.5006
-0.5636 -0.7572 0.9627
-0.4753 -0.7552 0.8633
-0.4931 -0.7594 0.8882
-0.9294 -0.7886 0.4946
-0.9420 -0.7749 0.5111
-0.8746 -0.7848 0.4783
-0.4614 -0.7635 0.8878
-0.4802 -0.7603 0.9750
-0.7657 -0.7706 0.6002
-1.0094 -0.7863 0.4670
-0.9352 -0.7725 0.7549
-1.0033 -0.7797 0.5010
-1.0912 -0.7793 0.5782
-1.0487 -0.7783 0.5767
-0.4844 -1.5257 0.8795
-2.9061 -0.8535 1.3938
-0.8028 -0.7701 0.6785
-0.5387 -0.7843 0.8481
-1.0368 -0.8015 0.8518
-0.6580 -0.7826 0.8638
-0.5158 -0.7850 0.8530
-0.7097 -1.5206 0.0709
-1.0285 -0.7896 0.5199
-0.8037 -0.7825 1.0833
-0.6486 -0.7916 0.7304
-0.7925 -0.7813 0.7729
-1.0452 -0.7872 0.5390
-0.6068 -0.7823 0.9487
-0.5263 -0.7895 1.0386
-0.6562 -0.7775 1.2006
-0.9335 -0.7711 0.7523
-0.7396 -0.7859 1.2803
-0.9701 -0.7672 0.8198
-0.7099 -0.7944 1.2865
-0.8346 -0.8027 0.6086
-0.6147 -0.7915 0.9279
-0.7570 -0.7892 0.6632
-0.5768 -0.7958 0.8885
-0.5102 -0.7901 1.0559
-0.8464 -0.7973 0.5482
-0.8392 -0.7806 0.5813
-0.7737 -0.7875 0.6445
-0.7918 -0.8017 0.8102
-0.9830 -0.8003 0.5422
-0.5943 -0.7899 0.9741
-0.9150 -0.7899 0.5500
-0.9123 -0.7920 0.4753
-0.8407 -0.7957 0.6733
-0.7995 -0.7869 0.6156
-1.0265 -0.7813 0.5889
-0.4695 -0.7864 0.9743
-0.7549 -0.7894 0.5907
-0.7666 -0.7893 0.5749
-0.9294 -0.8076 0.4476
-0.6105 -0.7896 0.8174
-0.4355 -0.7918 0.9405
-0.4329 -0.7897 0.9012
-0.9714 -0.7925 0.4605
-0.7958 -0.7803 1.0344
-0.6699 -0.7727 1.1801
-1.0563 -0.7739 1.0486
-0.9321 -0.7907 1.2308
-0.6828 -0.7848 0.7652
-0.7385 -0.7805 0.8230
-0.9389 -0.7856 0.6467
-0.8763 -0.7917 0.5107
-0.5030 -0.7907 0.8754
-1.0668 -0.7853 0.5563
-0.5083 -0.7855 1.0191
-0.7734 -0.7875 0.6052
-0.2017 -1.3951 1.1222
-0.9511 -0.7950 0.4062
-0.9665 -0.7897 0.4219
-0.8101 -1.4357 0.1602
-0.8160 -0.7784 1.0588
-0.5553 -0.7921 0.8275
-0.4682 -0.7830 0.8717
-0.5448 -0.8024 0.8214
-1.1028 -0.7744 0.9857
-0.4182 -0.7941 0.9217
-0.4515 -0.7906 0.9235
-0.4686 -0.7901 0.9066
-0.5875 -0.7854 0.8601
-0.5780 -0.7961 0.8549
-0.5823 -0.7815 0.7849
-0.7368 -0.7861 0.7166
-0.9351 -0.7957 0.4227
-0.7203 -0.7917 0.6254
-0.7868 -0.7934 0.6005
-0.9576 -0.7972 0.4815
-0.8155 -0.8009 0.5530
-0.9959 -0.8000 0.8101
-0.7184 -0.7886 1.1716
-1.1284 -0.7970 0.6019
-1.0484 -0.7841 0.5722
-0.2223 -1.4375 1.1228
-1.1455 -1.5150 0.3022
-0.8046 -0.7919 0.5798
-0.5837 -0.8076 0.7924
-0.5320 -0.7848 0.8010
-0.5703 -0.7901 0.7737
-0.7003 -0.8118 0.6777
-0.4839 -0.7881 0.8877

