-0.0123 -0.0580 0.0345
0.0112 -0.0854 0.0204
0.0136 -0.0332 0.0174
-0.1063 -0.5458 0.1689
0.0475 -0.0597 0.0432
-0.0007 -0.1251 0.0317
0.0094 -0.0816 0.0174
-0.0013 -0.1206 0.0282
0.0432 -0.1010 0.0551
0.0491 -0.0669 0.0131
0.0151 -0.0336 0.0476
0.0118 -0.0918 0.0298
-0.2831 -0.7607 0.2247
-0.4157 -1.7102 0.7931
0.0152 -0.0808 0.0696
0.0730 -0.1624 0.1425
0.0570 -0.0857 0.0137
-0.0820 -0.2595 0.2826
0.0788 -0.0890 0.0568
0.0871 -0.1360 0.0755
0.0684 -0.0787 0.0365
0.0446 -0.0495 0.0124
0.0410 -0.0444 0.0168
0.0241 -0.7019 0.3780
0.0423 -0.1301 0.0488
-0.0351 -0.3965 0.1110
0.1369 -0.9889 0.3248
0.2188 -0.3840 0.3393
-0.0257 -0.5708 0.1296
-0.3116 -0.6362 0.6665
-0.1434 -0.4928 0.1527
0.1648 -0.3806 0.1811
0.0125 -0.4523 0.1746
0.0375 -0.0454 0.0111
0.0222 -0.4136 0.1249
-0.6858 -1.7555 1.3513
0.2079 -1.6521 0.8794
0.6009 -1.8964 0.8167
-0.6032 -1.8232 0.8637
-0.5873 -1.8198 0.4427
-0.0447 -0.6772 0.1534
0.3572 -0.9253 1.4171
-0.4978 -1.7230 0.5794
0.6706 -1.7494 0.4619
0.8130 -1.8596 0.9022
0.0147 -2.0594 0.8004
0.2622 -2.0203 0.4561
0.1535 -1.6923 0.3431
-0.5047 -1.7265 0.4154
-0.5201 -1.6704 0.4784
0.3086 -1.7413 0.3549
-0.6140 -1.5804 1.7620
-0.7410 -0.9726 1.9887
-0.7482 -1.0077 1.8888
-0.7385 -1.0405 1.9414
-0.3190 -1.7993 1.3812
-0.8185 -1.6488 1.5261
-0.2358 -1.7741 1.3458
-0.7588 -0.9649 1.7587
-0.8146 -1.6666 1.5791
0.5561 -1.3474 0.5126
-0.7613 -1.6927 0.9035
0.7432 -1.6920 1.0567
0.7558 -1.7200 0.8483
0.6680 -1.7789 1.1456
-0.7115 -1.7538 1.4057
-0.1850 -1.6240 1.2502
0.7210 -1.7359 0.6655
0.6199 -1.7575 0.7349
0.2523 -1.5987 0.2302
0.2529 -1.7308 0.3552
0.0775 -1.9955 0.8247
0.0320 -1.9009 0.2689
0.0126 -1.7116 0.2339
-0.0357 -1.8070 0.2566
-0.2285 -1.6717 0.2516
-0.1998 -1.8352 0.2666
-0.1017 -1.6921 0.2140
-0.6277 -1.7422 0.8020
0.3862 -1.6414 0.2500
0.6042 -1.5376 0.2392
0.2562 -1.6446 0.3102
-0.5208 -1.8684 0.9433
-0.0218 -0.8693 0.1860
-0.8252 -1.0001 2.1055
-0.5388 -1.6431 1.7296
0.1323 -2.0891 0.8253
-0.1569 -1.9957 0.2950
-0.1769 -1.7015 0.2656
0.1380 -1.6629 0.5398
-0.4781 -2.1923 1.0171
0.2358 -1.7844 0.7984
0.5245 -1.0773 0.2606
0.4865 -1.6429 0.2814
0.7432 -1.4962 0.6161
-0.7290 -1.6876 0.9255
-0.3940 -1.5878 0.9737
0.9794 -1.9516 1.1142
0.7071 -1.7396 1.0170
0.1226 -1.8067 0.3748
-0.1538 -1.7592 0.4928
0.6688 -0.9063 1.4702
0.0918 -1.7607 0.6472
0.6207 -1.4410 0.6011
0.0647 -1.8170 0.6795
0.6231 -0.8966 1.2359
0.2511 -0.9371 0.3341
0.2255 -1.2255 0.4451
0.0639 -0.5339 0.0775
-0.3195 -0.8435 2.1200
1.0842 -2.1015 1.1668
1.0753 -1.9334 1.7404
0.9950 -1.7892 1.6626
0.2773 -2.2664 0.7200
0.0545 -2.0823 1.2110
0.5195 -1.5315 0.6455
0.3725 -0.8749 1.7466
-0.1827 -1.4960 0.4524
0.1754 -0.2966 0.4296
0.0597 -1.7465 0.8505
-0.0165 -1.7895 0.7104
1.2271 -2.0227 0.9458
0.9644 -1.7322 0.9695
0.9006 -1.9403 0.9577
0.1581 -0.7918 0.7919
0.9100 -0.8429 1.5700
0.7377 -0.3365 1.1607
0.0161 -0.1645 0.0823
1.1459 -0.8669 2.7541
-0.2097 -0.7690 2.3308
0.7504 -1.6402 0.4832
0.8471 -0.9183 1.3791
0.6078 -0.8229 1.2194
0.9340 -0.8147 1.4333
0.0691 -0.7670 1.0784
0.4657 -0.2450 1.0404
-0.1302 -0.7778 0.1725
1.2603 -1.7908 1.1177
0.9724 -0.8780 1.5194
0.1458 -1.6479 0.6331
0.8853 -0.9179 1.1413
-0.3422 -1.0408 3.3456
1.3132 -1.7540 1.0869
1.0626 -1.3597 0.8513
0.0635 -0.9748 3.4564
0.7469 -1.6890 1.0622
0.2850 -0.8159 1.3697
0.5937 -0.7670 1.1366
0.7746 -0.7516 0.9197
0.2276 -1.3918 0.7553
0.8371 -0.6911 1.2060
1.0589 -1.4202 0.8780
0.5547 -1.3586 0.6908
0.7639 -0.7189 0.8700
0.3440 -0.7412 1.1401
0.2795 -0.7319 1.2403
-0.1179 -1.4227 1.0981
0.8480 -0.7508 1.2340
-0.1956 -1.4465 1.1139
0.8691 -0.7651 1.4311
0.8715 -0.7470 1.4254
0.5916 -1.2325 0.5353
0.6783 -1.4181 0.7074
0.6009 -0.7639 1.1182
0.1383 -1.3997 0.9909
0.8734 -0.8151 1.3031
0.6125 -0.7635 1.4846
0.2403 -1.4229 0.6886
0.3653 -0.7402 1.4926
0.8800 -0.7586 1.4415
0.8800 -0.7527 1.2930
0.8283 -1.4695 0.7973
0.8382 -0.7587 1.2310
0.7892 -1.4266 0.8082
0.7382 -1.4524 0.7093
0.7107 -1.5188 0.7238
0.2263 -1.4548 0.7802
0.1397 -1.4527 1.0222
1.0321 -1.3993 0.8726
0.9322 -0.8069 1.3974
-0.1395 -1.4600 1.1117
0.6913 -1.4827 0.9299
1.4524 -0.9225 2.8053
0.9958 -0.5927 2.8542
-0.0312 -0.9105 2.8728
1.4489 -0.9933 2.5331
0.4897 -0.5513 1.5987
0.6841 -0.7042 1.0828
0.5949 -0.7554 1.2966
0.1613 -0.7500 1.5681
0.0694 -0.7479 1.0322
0.0823 -0.5423 3.0410
0.9412 -0.6025 2.9215
1.7703 -0.9929 2.3844
0.3858 -0.5802 2.9471
0.1135 -0.8340 2.9946
0.1976 -0.5246 3.0571
0.0593 -0.5085 3.1708
-0.2458 -0.7434 2.7297
0.1666 -0.8050 2.8882
1.0690 -0.5618 2.9971
0.6042 -0.4965 3.1904
1.0651 -0.5235 2.7302
-0.2621 -0.9213 2.9943
0.8757 -1.5244 0.9388
0.5257 -0.9110 3.7084
-0.5951 -1.1786 3.8115
0.1660 -0.4980 3.0750
0.5040 -0.5390 2.5784
-0.3380 -0.5001 3.2432
0.1038 -0.5356 3.2226
1.3441 -0.5251 3.2099
1.2227 -0.4042 3.0217
1.2395 -0.5113 3.2006
1.1625 -0.5414 2.9531
0.7701 -0.4551 3.4401
0.6893 -0.4939 3.2042
0.4256 -0.4789 3.4222
1.0327 -1.4576 0.8475
0.0911 -0.7208 1.0126
1.0448 -0.4747 3.5949
0.8697 -0.5031 3.4363
0.6674 -0.4599 3.5091
0.4790 -0.4883 3.4946
0.4739 -0.4386 3.4930
0.7554 -0.5236 3.4413
0.7328 -0.4041 3.4502
0.0577 -0.8017 2.9133
0.6045 -0.7769 1.1302
1.0761 -1.4318 0.8492
0.3817 -0.7602 1.5468
2.0094 -0.9623 2.7048
1.9067 -0.5698 3.1468
0.3437 -1.3832 0.6533
1.0330 -0.4825 3.0544
0.4421 -0.5238 3.2712
0.5558 -0.7319 1.0825
1.6000 -0.9461 2.2194
0.5658 -1.4572 0.5729
0.0860 -1.4199 1.0078

