-0.0003 -0.0312 0.0258
-0.0117 -0.0176 -0.0073
0.3688 -1.3927 0.8168
-0.4942 -1.3708 1.1987
0.8138 -1.3317 0.7503
0.8081 -1.2773 0.9009
0.7904 -1.2841 0.8360
0.7003 -1.2253 0.7234
0.5628 -1.3673 1.1101
0.6714 -1.3565 0.7245
0.5537 -1.2702 0.8538
0.3043 -0.8161 1.0169
0.7411 -0.5936 0.9362
0.7768 -0.4867 1.1292
0.7278 -0.5809 0.9635
0.7127 -0.5049 1.2277
0.6863 -0.9611 0.8584
0.6413 -1.0294 0.7563
0.4404 -0.9571 0.8041
0.5672 -1.1651 1.1347
0.6570 -0.5635 0.9135
0.7953 -0.5260 1.2357
0.7332 -0.5422 1.1772
0.6739 -0.5476 1.0705
0.6741 -1.0431 0.8646
0.3786 -1.1449 0.9721
0.2186 -0.5868 1.8127
0.2027 -0.0221 0.7961
-0.1313 -0.0106 0.7933
0.0175 0.1240 0.0589
0.0058 0.1416 0.0266
0.0160 0.1376 0.0301
0.4490 -1.0233 0.9313
0.5388 -1.1098 0.8341
0.6069 -1.0396 0.8022
0.6768 -1.4256 1.4163
-0.0070 0.1105 0.0908
0.0106 0.1164 0.0730
0.0164 0.1381 0.0633
0.0199 0.0844 0.1169
-0.0028 0.0633 0.0911
0.0044 0.1021 0.0417
0.0244 0.1249 0.0625
0.0008 -0.0049 0.2560
0.0208 0.1148 0.0846
-0.0084 0.0624 0.1475
0.0335 0.1170 0.0674
0.0180 0.0469 0.1619
0.0013 0.0379 0.1735
0.0126 -0.0464 0.2934
0.0159 0.0376 0.2196
0.1340 -0.0595 0.2949
0.0109 0.0359 0.0711
0.0033 -0.1535 0.1538
-0.0164 0.0223 0.1113
0.0039 0.0239 0.2621
0.0031 0.1298 0.0554
0.1191 0.1042 0.3470
0.1074 -0.0438 0.3011
0.0853 -0.0211 0.2706
0.0458 0.1251 0.1172
0.0278 0.0211 0.2410
0.0779 0.1177 0.0594
0.0629 0.1322 0.0703
0.0056 0.0153 0.1375
0.0364 0.1381 0.0750
0.0261 0.0947 0.0797
0.0369 0.1387 0.0670
0.0339 0.1465 0.0483
0.0469 0.1419 0.0658
0.0562 0.0716 0.0945
0.0701 0.1216 0.1053
0.1022 0.0600 0.2178
-0.2780 -0.6579 1.1311
0.4151 -0.6633 1.1635
-0.3263 -0.6522 1.1524
0.5588 -1.1270 1.0702
0.4144 -0.6683 1.1411
-0.0747 -0.6312 1.1285
0.4391 -0.6645 1.1668
-0.3281 -0.6588 1.1054
-0.3001 -0.6432 1.1440
-0.2835 -0.6680 1.3145
-0.3023 -0.6489 1.1224
-0.3002 -0.6458 1.1704
-0.1573 -0.6625 1.1366
-0.2441 -0.6241 1.1209
-0.3108 -0.6804 1.1231
-0.1276 -0.6372 1.0822
-0.1222 -0.2384 0.7117
0.9127 -0.6530 1.9178
-0.3179 -0.6315 1.1848
-0.2756 -0.6502 1.1501
0.3656 -0.6675 1.1419
0.4246 -0.6278 1.1583
-0.3219 -0.6398 1.2490
0.4105 -0.6633 1.1089
0.4440 -0.6769 1.2353
0.2598 -0.6399 1.1186
0.4126 -0.6564 1.1855
0.3897 -0.6683 1.1424
-0.2840 -0.6772 1.1223
0.3408 -0.6652 1.1680
-0.2261 -0.6525 1.1502
0.1831 -0.6715 1.1764
0.4389 -0.6646 1.1408
0.6274 -1.1192 1.1280
-0.2279 -0.6575 1.1302
-0.2021 -0.6517 1.1232
0.4340 -0.6616 1.1113
0.4092 -0.6487 1.2077
0.3895 -0.6641 1.1659
0.3951 -0.6760 1.2077
0.3912 -0.6637 1.2764
0.3201 -0.6808 1.1570
0.2659 -0.6551 1.2696
0.1813 -0.6657 1.1423
-0.3057 -0.6603 1.2437
-0.2588 -0.6736 1.1191
0.4336 -1.2321 1.0996
-0.7486 -0.7776 3.1655
1.0685 -0.7553 3.0961
0.6370 -1.1600 0.8828
0.5968 -1.0749 0.9749
-0.3289 -0.6591 1.1335
0.5176 -1.2564 0.9747
-0.3074 -0.6677 1.1430
-0.3252 -0.6506 1.2308
-0.2949 -0.6359 1.1311
0.4101 -0.6495 1.2043
0.4159 -0.6611 1.1903
-0.0746 -0.6523 1.1775
0.4291 -0.6442 1.1708
-0.2971 -0.6451 1.2849
-0.5887 -1.4318 1.2151
0.2912 -0.6638 1.1153
0.3872 -0.6586 1.1325
0.3375 -0.6550 1.1292
0.3144 -0.6576 1.1871
-0.3047 -0.6650 1.1107
-0.2683 -0.6340 1.0779
-0.2532 -0.6603 1.1611
0.3889 -0.6620 1.2719
-0.2810 -0.6665 1.1419
0.3392 -0.6695 1.1174
-0.0745 -0.6456 1.1419
0.0275 -0.6471 1.1708
-0.3020 -0.6539 1.1791
-0.2724 -0.6425 1.1398
-0.2539 -0.6596 1.1302
-0.3020 -0.6530 1.2060
-0.1533 -0.6589 1.1310
0.3928 -0.6656 1.1970
-0.0228 -0.6529 1.1483
0.3176 -0.6646 1.1697
0.3918 -0.6654 1.1668
0.7786 -0.6515 1.4935
-0.6921 -1.2343 1.2950
0.4937 -1.1867 1.1026
0.7891 -0.6353 1.5957
0.6102 -1.1131 0.9169
0.5602 -1.3763 0.8949
-0.2502 -0.6523 1.0940
0.4172 -0.6718 1.1206
0.4177 -0.6623 1.2753
0.3418 -0.6627 1.1943
0.3207 -0.6796 1.1562
-0.1714 -0.6384 1.2149
0.2966 -0.6780 1.2671
-0.1501 -0.6448 1.2222
0.2676 -0.6658 1.1715
0.2401 -0.6593 1.1115
0.2431 -0.6616 1.2775
-0.1272 -0.6500 1.2561
0.1760 -0.6526 1.1017
0.0499 -0.6668 1.2487
0.0289 -0.6548 1.1263
-0.0480 -0.6687 1.1382
-0.0213 -0.6532 1.1230
-0.0493 -0.6691 1.1665
-0.0495 -0.6709 1.1961
-0.0477 -0.6519 1.2024
0.5997 -0.8532 3.2049
0.9328 -0.6254 1.9618
-0.5989 -1.3535 1.1760
0.1763 -0.6545 1.1830
0.1240 -0.6508 1.1491
0.0525 -0.6720 1.1433
-0.1015 -0.6449 1.1424
-0.1034 -0.6537 1.1246
-0.1550 -0.6631 1.1616
-0.1764 -0.6510 1.1758
-0.1767 -0.6511 1.1218
-0.2001 -0.6491 1.1192
-0.2531 -0.6569 1.2382
-0.2277 -0.6589 1.1320
0.6888 -1.0849 1.0522
0.3854 -1.3055 1.1416
-0.3212 -1.0667 3.9779
0.9765 -0.8845 3.2544
1.0307 -0.7560 3.2269
-1.0561 -0.6857 2.9147
1.1959 -0.9048 3.4642
-0.7188 -0.7593 3.0613
-0.3339 -0.4402 2.8208
-0.6691 -0.4108 2.9038
0.5893 -0.4922 3.3215
0.6929 -0.8624 3.1693
0.8989 -0.6437 1.8805
-0.2666 -0.6339 1.4564
0.1182 -0.6525 2.0431
-0.3271 -0.6583 1.3049
0.6977 -1.1974 0.8094
0.4666 -1.1836 1.1199
0.4616 -0.6574 1.5220
0.1008 -0.5661 1.8792
-0.7032 -0.6288 3.1520
0.5189 -1.2438 1.3330
-0.9816 -0.7511 2.8093
0.6291 -1.4337 1.0918
-0.2760 -0.6544 1.2966
-0.2519 -0.6534 1.2949
0.2678 -0.6631 1.1954
0.0777 -0.6652 1.1386
0.0764 -0.6645 1.1652
0.2178 -0.6756 1.1546
0.1241 -0.6614 1.2454
0.4193 -0.6766 1.1241
0.5987 -0.6703 1.4903
0.3922 -0.6337 1.5801
0.7291 -1.1477 1.1081
0.5407 -1.1940 1.2834
-0.1251 -0.6386 1.1352
-0.7236 -1.3011 1.3494
-0.6135 -1.3285 1.1429
0.4176 -0.6631 1.1656
0.3147 -0.6546 1.1556
0.2132 -0.6443 1.1708
-0.0491 -0.6731 1.1468
-0.0788 -0.6749 1.1513
-0.1068 -0.6702 1.1458
-0.3289 -0.6553 1.1012
-0.2761 -0.6499 1.0930
0.2935 -0.6630 1.2785
1.2904 -0.5201 3.1872
0.7019 -1.1681 0.7690
0.4995 -0.9910 0.9658
0.8557 -0.7071 1.7239
0.0529 -0.6753 1.1800
-0.0516 -0.6897 1.1988
-0.0807 -0.6881 1.1986
0.6769 -0.9831 0.9450
0.3722 -1.3384 0.9053

