-0.0731 -0.6028 0.0715
-0.0299 -0.6139 0.0200
0.0886 -0.6149 0.0033
0.2169 -0.6149 0.0077
-0.0672 -0.6120 0.2072
-0.0718 -0.5910 0.4111
0.2560 -0.6075 0.2214
-0.0756 -0.6009 0.1700
-0.0308 -0.6114 0.2043
-0.0298 -0.5906 0.3544
-0.0759 -0.6239 0.0423
-0.0765 -0.6153 0.0257
-0.0125 -0.6065 0.2301
-0.0902 -0.5992 0.2280
-0.0131 -0.6074 0.4424
-0.0949 -0.6028 0.1214
-0.1823 -0.5978 0.1691
0.1548 -0.6182 0.1112
0.0283 -0.6070 0.2623
-0.1078 -0.5989 0.2127
0.1221 -0.6110 0.1094
0.1121 -0.6133 0.0233
-0.1415 -0.6079 0.0787
0.0669 -0.6143 0.0665
0.0909 -0.6069 0.0736
0.0886 -0.6056 0.2666
0.1205 -0.5991 0.4160
-0.0110 -0.6110 0.0358
0.1658 -0.6180 0.2191
0.1519 -0.5828 0.2752
-0.0952 -0.6062 0.1535
0.0237 -0.6095 0.1550
-0.1172 -0.5914 0.3235
-0.0890 -0.5856 0.3908
0.2271 -0.6219 0.1928
-0.0665 -0.6064 0.1583
0.1401 -0.6199 0.0678
0.0020 -0.6078 -0.0217
0.1614 -0.6229 -0.0312
0.0470 -0.6207 -0.0209
-0.1682 -0.6151 0.0686
0.1400 -0.6262 0.0645
0.1796 -0.6235 0.0441
0.1110 -0.6206 -0.0268
0.1229 -0.6171 0.1619
-0.0345 -0.6119 -0.0197
-0.0367 -0.6194 -0.0007
-0.1555 -0.6156 -0.0218
-0.2486 -0.5960 0.1742
-0.2162 -0.5846 -0.0166
-0.2286 -0.6115 0.0595
-0.2232 -0.6017 0.1332
-0.1864 -0.6071 -0.0181
-0.1690 -0.6127 -0.0186
-0.1225 -0.6096 -0.0207
0.0129 -0.6108 0.1325
-0.2548 -0.5934 0.2331
0.1536 -0.6140 0.1416
-0.2103 -0.5998 0.1574
-0.1275 -0.5715 0.4083
-0.0900 -0.6066 0.0348
0.0821 -0.6197 -0.0171
-0.1440 -0.5854 0.1664
-0.1880 -0.6093 0.0752
-0.3085 -0.5793 0.3958
-0.2933 -0.5791 0.3862
-0.2724 -0.5937 0.2053
-0.1120 -0.6186 0.0196
0.1474 -0.6197 0.2053
-0.0534 -0.5963 0.5078
0.1260 -0.6074 0.3514
-0.2542 -0.5821 0.4193
0.1357 -0.6204 -0.0299
0.1234 -0.6171 0.1025
-0.0636 -0.5903 0.0347
-0.0762 -0.5954 0.4917
-0.0818 -0.5869 0.3399
0.0084 -0.6082 0.0943
0.0988 -0.6194 -0.0292
-0.0797 -0.6038 0.2106
0.0268 -0.5971 0.2455
-0.0961 -0.6080 0.2800
0.1582 -0.6194 0.0239
-0.1287 -0.6018 0.1712
-0.1179 -0.6014 0.2208
-0.0525 -0.5895 0.4694
0.0598 -0.6168 0.0224
0.0932 -0.6190 -0.0234
0.1501 -0.6226 0.0028
-0.0900 -0.5776 0.2900
-0.0220 -0.6076 0.1060
-0.1519 -0.6133 -0.0148
0.0474 -0.6107 0.0711
-0.1171 -0.6222 -0.0222
0.1150 -0.6124 0.2172
-0.0984 -0.6226 0.0872
-0.1271 -0.6133 0.2433
-0.1510 -0.6199 0.0020
-0.0249 -0.5966 0.3348
0.1499 -0.6001 0.0956
-0.1034 -0.6187 -0.0146
0.0374 -0.5950 0.3410
-0.2937 -0.6119 0.0908
0.1874 -0.6114 0.1914
0.1455 -0.6279 0.0032
-0.3003 -0.5786 0.4736
-0.2277 -0.5686 0.2409
0.1441 -0.6004 0.0764
0.2135 -0.6245 -0.0133
0.0757 -0.5784 0.1682
-0.2267 -0.6061 0.0981
0.0056 -0.6064 0.2489
-0.0523 -0.6219 0.0817
0.0959 -0.6092 0.1702
0.1315 -0.6113 0.0995
0.0840 -0.6069 -0.0026
0.2082 -0.5912 0.0387
-0.2840 -0.5737 0.1703
0.0079 -0.5968 0.0531
-0.0620 -0.5895 0.3895
-0.2163 -0.5998 0.2656
0.2023 -0.6138 -0.0329
0.1613 -0.5999 -0.0275
0.0976 -0.6251 -0.0346
-0.0732 -0.6382 0.0801
-0.1015 -0.6025 0.1062
-0.2594 -0.6123 0.1079
0.0744 -0.5972 0.0654
0.2045 -0.6141 0.0548
-0.1128 -0.6208 0.0931
-0.1977 -0.5984 0.0536
0.1248 -0.5896 0.2915
0.0520 -0.6111 0.1748
0.0432 -0.6211 0.1775
-0.1696 -0.6154 -0.0043
0.0451 -0.5547 0.3490
-0.0013 -0.6264 -0.0186
-0.0171 -0.6067 0.0720
-0.0209 -0.6008 0.0621
-0.0228 -0.6070 0.1479
-0.0471 -0.6000 0.3883
0.1638 -0.6115 0.1978
-0.0690 -0.6326 0.0511
-0.1978 -0.5994 0.0460
-0.0832 -0.6186 0.0189
-0.1128 -0.6148 0.2774
-0.0880 -0.6185 -0.0187
0.0643 -0.6212 -0.0217
0.0356 -0.6140 0.0427
0.0143 -0.6160 -0.0216
0.1044 -0.6047 0.3800
0.1988 -0.6119 0.1362
0.0612 -0.6115 0.0769
0.0319 -0.6170 0.0699
-0.1511 -0.5815 0.0370
0.1618 -0.5910 0.1520
-0.1072 -0.6022 0.1511
-0.2329 -0.6113 0.1180
0.2007 -0.6140 0.3827
0.2520 -0.6217 0.4421
0.1834 -0.6037 0.3845
0.2761 -0.6194 0.4158
0.1585 -0.6116 0.3977
0.0100 -0.0163 0.0037
-0.1193 -0.6081 0.1776
-0.0540 -0.5828 0.5224
0.2423 -0.6181 0.0193
-0.2012 -0.6311 0.5214
-0.2346 -0.6167 0.0544
-0.1711 -0.6286 0.0849
-0.0497 -0.6233 0.1470
-0.0661 -0.6570 0.0050
0.1487 -0.6121 0.4060
-0.2571 -0.5881 0.0227
-0.0112 -0.6073 0.2649
-0.0527 -0.6198 -0.0192
-0.1217 -0.6085 -0.0262
0.0719 -0.6244 -0.0230
0.2424 -0.6010 0.2594
0.1678 -0.6006 0.1316
0.1750 -0.6133 0.1975
0.1325 -0.6187 0.1396
0.1197 -0.6161 0.1983
-0.1592 -0.5916 0.1811
-0.1550 -0.5942 0.2706
0.0009 -0.6164 0.0998
-0.0245 -0.6073 0.2338
-0.1106 -0.6025 0.0731
-0.2600 -0.6058 0.1527
-0.1102 -0.5726 0.2773
-0.0817 -0.6030 0.1292
-0.0791 -0.6030 0.1458
0.1777 -0.6089 0.1127
0.1816 -0.5917 0.3101
-0.2605 -0.5999 0.0106
-0.0258 -0.6047 0.1339
0.2388 -0.6153 0.2044
-0.0651 -0.5657 0.3429
0.0883 -0.5897 0.3126
0.1316 -0.6106 0.3950
0.0634 -0.5920 0.3514
-0.2570 -0.5849 -0.0241
-0.0686 -0.6157 0.3420
-0.1844 -0.5845 0.2160
0.2037 -0.6185 0.0414
0.2345 -0.6089 0.2510
0.2098 -0.6111 0.2339
0.1790 -0.6243 0.0090
0.0173 -0.5951 -0.0271
-0.0989 -0.6163 0.0197
0.1026 -0.5971 0.1825
-0.2904 -0.5907 0.1492
-0.3121 -0.5767 0.4011
-0.0050 -0.6020 0.0572
-0.0014 -0.6097 0.0775
-0.2179 -0.6057 0.1278
-0.0512 -0.5976 -0.0173
0.1730 -0.6203 0.1847
-0.0255 -0.6238 0.0020
0.1801 -0.6126 0.2634
-0.1851 -0.5837 0.4104
-0.0026 -0.0324 0.0119
0.0295 -0.1711 -0.0287
-0.0222 -0.0617 -0.0350
0.0000 -0.0343 -0.0153
-0.0048 -0.0470 -0.0197
0.0124 -0.0704 0.0017

