-0.7900 -2.5461 0.2194
-0.6982 -1.7698 0.1830
-0.6288 -1.5972 0.1825
-0.5219 -1.4060 0.2499
-0.1182 -0.0747 0.1440
-0.0967 0.0334 0.2708
-0.0689 -0.0063 0.3340
-0.0777 -0.0028 0.3354
0.0103 -0.7237 1.2179
-0.0718 -0.6964 1.1339
-0.0875 -0.6945 1.1766
-0.2109 -0.1988 0.3300
-0.1721 -0.2154 0.5562
-0.5813 -0.8661 0.3435
-0.2951 -0.0781 0.1941
-0.4709 -0.5730 0.4546
-0.3775 -0.3032 0.3652
-0.5385 -0.7883 0.3067
-0.1121 -0.4105 0.9062
0.1413 -0.7346 0.4015
0.1253 -0.7551 0.4020
-0.0165 -0.7449 0.0827
0.0356 -0.7969 0.2599
0.0300 -0.8506 0.1725
0.0601 -0.8669 0.4506
0.0348 -0.8475 0.5862
0.0432 -0.7526 0.7816
-0.1033 -0.7787 0.1416
0.0877 -0.6788 1.1239
0.0671 -0.6804 1.0452
-0.1172 -0.8471 0.1309
-0.1596 -0.7524 0.0305
-0.0402 -0.8185 0.4974
-0.1105 -0.8333 0.2582
-0.0732 -0.8621 0.3957
0.0509 -0.6887 1.1773
0.0695 -0.7919 1.2552
-0.0949 -0.8757 0.3849
-0.0935 -0.2645 0.8448
-0.0034 -0.8919 1.1053
0.0026 -0.7164 1.2116
-0.0620 -0.8473 0.9831
-0.0594 -0.5986 1.1238
-0.1868 -0.8174 0.3798
-0.0437 -0.7109 1.2828
-0.0811 -0.6139 1.1142
-0.1931 -0.8024 0.4580
-0.0965 -0.6824 1.1202
-0.2550 -0.8153 0.1612
-0.1287 -0.4363 1.0357
-0.2287 -0.3205 0.5198
-0.3342 -0.8182 0.0526
-0.2517 -0.3193 0.3787
-0.3193 -0.8301 0.2770
-0.3402 -0.8342 0.2314
-0.3543 -0.8410 0.3518
-0.3590 -0.8156 0.3143
-0.3674 -0.8120 0.2646
-0.5040 -0.8355 0.3475
-0.3642 -0.1132 0.4922
-0.3860 -0.2668 0.8566
-0.3941 -0.2661 0.8751
-0.5848 -0.5448 0.6616
-0.8705 -1.2824 0.6721
-0.7162 -0.7417 0.5081
-0.0032 -0.7750 1.0647
0.0684 -0.7272 0.9310
0.0508 -0.7677 0.9634
-0.4143 -0.5588 0.4662
-0.5715 -0.7911 0.3040
-0.5699 -0.7796 0.3148
0.0527 -0.7162 0.9166
-0.0221 -0.6381 1.2306
0.0185 -0.7830 0.2765
0.0632 -0.7656 0.7648
0.0217 -0.4149 0.9508
-0.0093 -0.6436 1.0005
-0.1374 -0.7802 0.4065
0.0834 -0.7912 1.0386
-0.0840 -0.4183 1.0138
-0.0381 -0.6298 1.1920
-0.2596 -0.8584 0.4137
-0.3070 -0.8493 0.2008
-0.3157 -0.7941 0.1409
-0.2371 -0.3453 0.4019
-0.3408 -0.3490 0.9852
-0.5404 -0.7305 0.4619
-0.7311 -0.8244 0.4238
-0.0767 -0.8006 0.2252
-0.1348 -0.4882 1.0909
0.1897 -1.3821 1.5597
-0.6121 -0.7585 0.0830
-0.2895 -0.1370 0.8248
-0.6181 -0.8923 0.0794
0.1108 -0.6715 0.8802
-0.6985 -0.7641 0.5120
-0.5780 -0.4951 0.4215
-0.5687 -0.7102 0.4772
-0.4644 -0.6758 1.2553
-0.4154 -0.8140 0.2190
-0.2978 -0.1517 0.8453
0.0450 -0.8094 0.7588
-0.2674 -0.1405 0.8464
-0.3137 -0.1624 0.8537
-0.0513 -0.8289 0.3096
-0.0529 -0.7360 0.1744
-0.2594 -0.8659 0.2263
0.0991 -0.8074 0.5174
-0.3283 -0.8143 0.1548
-0.3843 -0.8163 0.3912
-0.3673 -0.3531 0.9833
-0.4093 -0.8388 0.2542
-0.4167 -0.8429 0.3259
0.0918 -0.6466 1.0477
-0.4621 -0.8217 0.1416
-0.4732 -0.7917 0.1339
0.0867 -0.6869 1.0600
-0.5560 -0.8453 0.1536
-0.0500 -0.4229 0.9352
-0.0666 -0.8413 0.3293
-0.7574 -0.7964 0.3499
-0.0469 -0.7382 0.2071
0.1060 -0.6492 1.0848
0.0740 -0.6520 0.8298
-0.0476 -0.3977 1.0141
0.0076 -0.7749 0.9036
-0.0919 -0.3118 1.0095
-0.3761 -0.8056 0.4283
-0.6794 -0.7984 0.3492
-0.5662 -0.7755 0.3001
-0.6511 -0.8577 0.0959
-0.6369 -0.8811 0.0681
-0.6510 -0.8719 0.1179
-0.5612 -0.8272 0.3512
-0.5323 -0.8324 0.3090
-0.5377 -0.7322 0.4780
-0.6684 -0.9023 0.2146
-0.6739 -0.8765 0.3221
-0.6673 -0.9058 0.3850
-0.5772 -0.8745 0.2040
-0.3955 -0.9331 0.2281
-0.5547 -0.8065 0.2569
-0.7595 -0.9655 0.3194
-0.6204 -0.3797 0.9612
-0.6808 -0.2687 0.9180
-0.5305 -0.4035 0.9945
-0.5714 -0.9092 0.3549
-1.0109 -0.9680 1.3431
-1.2115 -0.9621 1.5156
-0.7669 -0.9953 0.3464
-1.5496 -0.9435 1.9172
-0.8327 -1.0555 0.3597
-0.8639 -0.9137 0.4299
-0.7748 -0.8866 0.1523
-0.8906 -0.9142 0.3095
-0.9671 -0.9909 0.4407
-1.5022 -1.0586 1.3836
-0.9650 -0.9386 0.3361
-1.4539 -0.9958 1.2575
-0.7304 -0.8229 0.3754
-1.2542 -0.8885 1.3862
-0.8468 -0.9579 0.3721
-0.4687 -0.5880 0.4186
-1.0645 -0.9548 0.2548
-1.1376 -0.8641 0.4239
-1.0621 -0.9626 0.2967
-0.9405 -0.9471 0.1585
-1.1883 -0.9326 0.5222
-1.0744 -0.9618 0.3691
-1.1470 -0.8634 0.5290
-1.7114 -0.8146 1.4505
-0.8634 -0.8323 0.2638
-0.9222 -0.9555 0.3045
-1.2505 -0.9719 1.3643
-0.5424 -0.8683 0.3357
-1.1375 -0.9632 1.5315
-0.6906 -0.9772 0.5085
-1.3838 -0.9287 0.6221
-0.6558 -0.2460 0.5651
-1.1075 -1.0371 1.8867
-1.1807 -0.8226 1.2554
-1.3110 -0.8402 1.4714
-1.0668 -0.8440 1.8864
-1.7409 -0.9495 1.9815
-1.2383 -0.9221 0.5001
-0.6945 -0.5760 0.2378
-1.3131 -0.9062 0.6105
-1.3341 -0.9129 0.6327
-1.3036 -0.8372 0.6483
-1.2061 -0.8350 0.9553
-1.4395 -0.8454 0.8772
-0.9891 -0.9485 0.5049
-1.8251 -0.9453 1.7892
-1.4958 -0.9141 0.9904
-0.8778 -0.9586 0.2073
-1.2211 -0.9645 0.7154
-1.1678 -0.9121 0.5773
-1.4582 -0.9080 1.0234
-1.5632 -1.0264 2.3719
-1.2186 -1.5155 0.7003
-1.0297 -1.0028 0.5176
-1.1642 -0.9765 1.9008
-1.3078 -0.9405 0.5971
-0.4336 -0.7418 0.4281
-1.0920 -0.9259 1.6534
-1.1065 -0.9595 1.4601
-1.2425 -0.8594 1.5483
-1.0895 -0.9501 0.9959
-1.1867 -0.8311 0.8522
-1.7615 -1.0044 1.6856
-1.4293 -0.9256 1.1273
-1.1042 -0.8524 0.4914
-1.1664 -0.7916 0.5037
-0.8820 -0.9498 0.0295
-0.8522 -0.8755 0.6472
-1.8743 -0.9500 0.9461
-0.5005 -0.7505 0.4427
-1.8461 -0.9290 1.0245
-1.1940 -0.9885 0.2998
-1.0978 -0.9798 0.2088
-1.0090 -0.9631 0.1297
-0.9614 -0.9565 0.1514
-1.0535 -0.9971 0.2958
-1.8583 -0.9922 1.2937
-0.9476 -0.9791 0.3911
-1.9027 -0.9972 1.7171
-1.7474 -0.7698 1.8523
-0.9397 -0.9771 0.4458
-1.2603 -0.8479 1.1731
-1.0936 -0.9466 0.8520
-1.0135 -1.0003 0.6139
-2.0595 -0.9386 1.9646
-1.7074 -0.9559 1.4616
-1.9032 -0.9065 1.5704
-1.2172 -0.9998 0.3182
-1.2674 -0.9545 1.5144
-1.6730 -0.9981 2.2949
-1.5890 -0.9849 0.7430
-2.0826 -0.8307 1.4872
-0.9361 -0.8397 0.1696
-1.5290 -0.9106 0.7932
-0.9966 -0.9370 1.2174
-1.2777 -0.8410 0.5154
-1.3435 -0.9147 1.8656
-0.5039 -0.5173 0.4151
-1.1600 -0.9220 1.5260
-1.7238 -1.0388 2.5386
-1.9247 -0.9412 1.3665
-1.3397 -1.0369 0.6305
-1.6935 -0.8211 1.0373
-1.8001 -1.0352 1.0089
-0.9872 -1.0093 0.0869
-1.2909 -1.0782 0.2184
-1.7368 -0.7395 1.2685
-1.8097 -0.8841 1.3624
-1.7672 -0.9330 1.4145
-1.1975 -0.8623 0.0973
-1.2016 -0.8528 0.1566
-1.2094 -0.8249 0.1760
-1.0732 -0.9179 1.8038
-1.1844 -0.8756 0.1670
-1.6188 -0.8589 0.5818
-1.5641 -0.9697 0.4992
-1.7056 -0.9676 0.6744
-1.5030 -0.9433 2.3047
-0.9296 -0.8301 1.2426
-1.2111 -0.9691 1.4584
-1.8720 -0.8952 1.6991
-1.7367 -0.7853 1.6016
-1.3406 -0.7865 1.3063
-1.7609 -0.9669 0.6939
-1.2414 -0.9811 0.1177
-1.1841 -0.8633 0.0859
-1.1988 -1.0051 1.7377
-1.3088 -0.8509 0.4733
-1.3077 -0.9571 0.9445
-1.5435 -0.8993 0.4654
-0.9111 -0.8449 0.8069
-1.1608 -0.9928 0.5998
-1.5990 -0.9579 0.5819
-1.5238 -0.8440 0.4578
-1.6087 -0.9819 0.4490
-0.6062 -0.0935 0.8636
-0.0882 -0.6506 1.1321
-0.6123 -0.8169 0.1244
-0.6252 -0.8265 0.0876
-0.6174 -0.0953 0.8623
-0.5700 -0.7856 0.3163
-0.6688 -0.3687 0.9984
-0.6003 -0.0991 0.8551
-0.5442 -0.8097 0.3069
-0.0477 -0.7133 1.0627
-0.5940 -0.4736 1.1204
-0.4113 -1.5901 0.1973
-0.3840 -0.1395 0.9297
-0.5028 -0.2751 0.8690
-0.3461 -0.8486 0.1540
-0.3219 -0.8256 0.1959
-0.5870 -0.2486 1.0448
-0.5009 -0.7798 0.2642
-0.4032 -0.1431 0.8794
-0.6685 -0.8567 0.2895
-0.3907 -0.3102 0.8809
-0.4173 0.1000 0.4416
-0.1250 -0.6735 1.1837
-0.3069 -0.3947 0.9816
-0.3518 -0.2832 0.8867
-0.1819 -0.8733 0.3799
-0.5019 -0.2841 0.8987
-0.5955 -0.1433 0.9588
-0.6103 -0.0881 0.9286
-0.6108 -0.1056 0.9216
-0.6374 -0.0672 0.8856
-0.3906 -0.8775 0.1925
-0.4176 -0.8944 0.2000
-0.4081 -0.8750 0.1658
-0.4333 -0.8678 0.2137
-0.4379 -0.8631 0.1651
-0.5270 -0.8845 0.2788
-0.6028 -0.7513 0.4894
-0.5511 -0.8793 0.2341
-0.6599 -0.8605 0.4736
-0.6681 -0.8701 0.3422
-0.6092 -0.8556 0.1560
-0.6599 -0.8816 0.2417
-0.6691 -0.8814 0.1718
-0.6712 -0.8531 0.1383
-0.6927 -0.8689 0.1310
-0.6844 -0.8005 0.0518
-0.8598 -0.8636 0.3731
-1.2607 -0.4929 1.2806
-0.9229 -0.8212 0.3618
-0.8821 -0.8404 0.2328
-0.5615 0.0281 0.5496
-0.6139 -0.9010 0.1109
-0.6243 -0.8994 0.1286
-1.2063 -0.7395 1.7926
-0.7078 -0.2721 0.5022
-0.7859 -0.7845 0.0684
-1.7628 -0.9228 1.4175
-0.5935 -0.3745 0.9830
-0.7211 -0.9135 0.1247
-0.6293 -0.1661 0.7109
-0.6885 -0.8970 0.1965
-0.5707 -0.8570 0.5084
-0.7159 -0.8947 0.4995
-0.5921 -0.8548 0.3275
-0.6456 -0.9240 0.3300
-0.9314 -0.9732 1.4607
-1.1310 -1.0321 1.9814
-1.0580 -0.9489 1.8397
-0.7842 -0.8948 0.3687
-0.8351 -0.9096 0.3538
-0.8803 -0.9059 0.4186
-0.7704 -0.9162 0.2238
-0.9240 -0.9059 0.0963
-0.8448 -0.9022 0.3009
-1.4954 -0.9475 0.9377
-0.7972 -0.9086 0.1441
-0.9142 -0.9073 0.1435
-1.2944 -0.9294 0.8779
-1.6198 -0.9114 1.3225
-1.7362 -0.9739 1.5253
-0.9133 -0.9179 0.1835
-0.8469 -0.9052 0.1937
-1.7607 -0.9462 1.6060
-0.8933 -0.9166 0.3637
-0.5869 -0.2997 0.9778
-0.5858 -0.4035 1.0018
-0.9639 -0.9576 1.4185
-1.2239 -1.0355 1.4836
-1.4304 -0.9907 1.7758
-1.2345 -0.8640 0.7866
-1.7683 -0.8954 1.5599
-1.0908 -0.9085 0.4522
-1.7431 -0.8680 1.2993
-1.3191 -0.9612 0.6673
-1.0315 -0.8859 0.2867
-0.9201 -0.9051 0.0736
-1.8207 -0.9174 1.4344
-0.4632 -0.8958 0.4972
-1.0287 -0.9573 0.0589
-1.0061 -0.9293 0.0722
-1.1277 -2.0318 -0.2158
-0.9083 -0.9235 0.0026
-0.5419 -1.1741 0.5743
-1.3217 -0.8966 0.5042
-0.9997 -0.9543 0.1677
-0.5573 -0.9144 0.4051
-0.5454 -0.9176 0.3116
-0.8885 -0.9492 0.2582
-0.5807 -0.9233 0.3123
-0.6752 -1.0000 0.3652
-0.6991 -0.9948 0.3770
-1.2179 -0.9591 1.0271
-1.3769 -0.9409 1.2210
-1.3622 -0.9359 1.0999
-1.0670 -0.9646 0.6639
-0.7151 -0.3299 0.8725
-1.1376 -0.9371 0.1983
-0.9949 -0.9560 0.3618
-1.3461 -0.9996 1.7286
-0.9686 -0.9838 0.2031
-1.8727 -0.5999 1.2322
-1.0531 -0.9492 0.2327
-1.2958 -1.0159 1.3155
-1.2123 -0.3699 0.5498
-1.2672 -0.8953 1.4945
-1.1129 -0.9178 1.7442
-1.0217 -0.9764 1.5386
-0.4968 -0.8858 0.4712
-1.4141 -0.8856 2.0077
-0.5782 -0.8740 0.3557
-0.7156 -0.9274 0.5134
-1.0376 -0.9603 0.9614
-1.1162 -0.9494 0.7810
-1.1455 -0.9291 0.4537
-1.9094 -0.8860 1.2797
-1.7908 -0.7948 0.9660
-1.1178 -1.0170 2.1102
-0.4806 -0.5263 0.4251
-0.5944 -0.8308 0.3188
-0.4819 -0.5226 0.4128
-0.8485 -0.8687 0.6793
-0.4954 -0.6468 0.4599
-0.5092 -0.6614 0.4597
-1.0732 -0.9537 0.0701
-1.0763 -0.9844 0.2428
-0.9559 -0.9671 0.1888
-1.5197 -0.9628 1.0918
-0.8399 -0.9426 0.6243
-1.1197 -0.9970 -0.0109
-1.2684 -1.0030 1.0741
-1.4550 -1.0004 1.3710
-1.6087 -0.9361 0.8176
-1.0331 -0.9069 0.9791
-0.9469 -1.0107 1.5987
-1.1580 -0.9735 0.0983
-1.1789 -0.8907 1.5384
-1.4671 -0.9923 1.2059
-0.8283 -0.9668 1.4075
-1.2855 -0.8800 1.9562
-0.9717 -0.9576 1.4205
-1.0546 -0.9747 1.4092
-0.7624 -1.0367 0.4679
-0.9656 -0.9186 0.5775
-0.9223 -0.9859 0.3740
-1.0166 -1.0491 0.1462
-1.9561 -0.9983 1.0426
-1.3001 -0.9795 0.1901
-1.4053 -0.9569 0.2582
-2.3561 -0.8089 1.0825
-1.9525 -0.9019 1.3367
-1.3865 -0.9790 1.1368
-0.9135 -0.9681 1.2674
-0.8887 -0.9898 1.2482
-0.9855 -0.9765 1.4408
-1.2998 -0.9879 1.0802
-1.4789 -0.9241 1.9239
-1.3536 -0.9356 1.2974
-1.1819 -0.9797 0.3512
-1.1863 -0.9750 0.3283
-1.1657 -0.8664 1.3082
-0.8204 -0.9030 0.7720
-1.6876 -0.8687 1.3151
-0.8868 -0.9923 0.3980
-1.0819 -1.0197 1.0657
-1.1046 -0.9895 -0.0427
-0.9257 -0.9666 0.9643
-1.2458 -0.8820 1.9250
-0.8709 -0.9836 1.3141
-0.7195 -0.9924 0.5340
-0.8393 -0.9909 0.6386
-1.6991 -0.8967 1.5676
-1.3261 -0.9703 0.6739
-1.2673 -0.9580 0.5642
-0.9711 -0.9896 0.1804
-1.4921 -0.9237 0.6036
-1.6485 -0.9624 0.4173
-1.8474 -0.8792 0.5789
-1.2453 -0.9989 0.0086
-0.9912 -0.9674 1.2893
-1.1987 -0.9700 -0.0689
-1.3668 -0.9692 1.9233
-1.1366 -0.8807 -0.0423
-1.1633 -1.0163 -0.0310
-1.1654 -0.9316 0.0053
-1.5373 -0.9671 0.4972
-1.6807 -0.9625 0.6759
-1.1589 -0.9849 0.1678
-0.8556 -0.4896 0.5210
-1.0932 -0.9761 0.1615
-1.0994 -0.9864 0.2153
-1.4047 -0.9036 1.2354
-1.3051 -0.8384 0.6318
-1.0450 -0.8791 0.5164
-0.7960 -0.8733 0.8069
-1.5080 -0.9189 0.9052
-0.7208 -0.9892 0.5709
-1.1988 -0.9728 1.8124
-0.7966 -0.8899 0.9229
-0.5920 -0.9061 0.4105
-1.3601 -0.8642 1.6114
-0.8519 -1.0371 0.6133
-1.2118 -0.7796 0.7403
-1.9547 -1.0080 1.0448
-0.7147 -1.0134 0.3819
-0.7382 -1.1464 0.2620
-1.7959 -0.8822 0.9608
-1.9391 -0.9381 1.3651
-1.8768 -0.9409 1.3645
-1.8994 -0.9582 1.3157
-1.1543 -0.9444 1.9014
-1.8056 -0.9173 1.3666
-1.9000 -0.9045 1.6385
-0.7872 -0.9924 1.1981
-1.7358 -0.8225 1.9463
-1.4196 -0.8280 1.3791
-0.9057 -0.9500 1.0988
-1.2101 -0.9204 1.0164
-1.7645 -0.8839 1.0380
-1.7136 -0.8995 1.4136
-1.4132 -0.9277 0.7516
-1.0525 -1.0135 -0.0483
-1.8641 -0.8964 1.3092
-1.1653 -0.8939 1.4790
-1.3111 -0.9072 -0.0281
-0.7306 -1.0127 0.8159
-0.7213 -1.0099 0.7687
-1.1437 -1.0035 0.0002
-1.2238 -0.9127 0.1260
-1.2945 -1.0019 0.1700
-1.2397 -0.9957 1.4726
-1.1787 -0.9653 0.5375
-0.8638 -0.9180 0.6713
-1.1365 -1.0212 0.5724
-1.4197 -1.0129 1.1535
-1.4027 -0.8453 1.1495
-0.7415 -1.0553 0.4066
-1.3536 -0.9884 0.3570
-1.5807 -1.0006 0.3239
-2.0550 -0.6340 0.6606
-1.2181 -0.9985 0.4484
-1.6382 -0.8298 0.4056
-1.5735 -0.9710 0.2493
-1.7280 -0.9575 0.6424
-1.7425 -0.8096 1.1069
-1.3531 -0.8434 0.3874
-1.2135 -0.9245 -0.1346
-1.2682 -0.9856 0.5078
-1.4237 -0.9662 0.6559
-1.3043 -1.0480 -0.1965
-1.3138 -0.9116 -0.1066
-1.4632 -0.9004 0.2578
-0.7468 -1.0325 0.6709
-1.6007 -1.0102 0.6880
-0.7313 -0.7890 0.6395
-0.8544 -0.9484 0.6242
-1.3725 -1.0562 1.3787
-1.3108 -0.9498 1.1108
-1.2635 -0.9752 1.0092
-0.8302 -0.9433 0.3639
-0.8836 -1.0121 0.3572
-1.5447 -1.0671 1.0126
-1.6078 -0.8652 0.6878
-1.6326 -0.9170 0.5483
-1.3380 -1.0024 0.2466
-1.7716 -1.0549 0.5676
-0.8325 -0.9443 0.7199
-0.9032 -0.9604 0.9091
-1.8693 -0.4370 0.5923
-1.8631 -0.9931 1.6626
-1.3632 -0.8955 0.5294
-1.2066 -0.8106 0.1799
-1.9815 -0.5152 0.6667
-1.7029 -0.9447 0.6631
-0.9206 -1.0741 0.9344
-1.1855 -0.8831 -0.2026
-1.3403 -0.9418 -0.0600
-1.5327 -0.9511 0.1281
-1.7039 -0.8395 0.3835
-1.7329 -0.9561 0.3963
-1.1172 -0.9176 -0.0883
-1.3638 -0.9245 0.1351
-1.4551 -0.9314 0.2234
-1.2488 -0.9455 0.0652
-1.0507 -1.0803 1.0209
-1.2387 -0.9403 0.1257
-1.5075 -0.8786 0.4652
-1.5550 -0.9940 0.5985
-1.5022 -0.8311 0.0034
-1.2926 -0.8262 -0.1782
-1.2101 -0.9580 0.3188
-1.0798 -1.0363 0.3190
-1.5498 -0.8214 0.0364
-1.3546 -0.9218 0.6455
-1.1623 -0.9142 0.4499
-1.3883 -0.8834 -0.1468
-1.1161 -0.9412 0.5210
-1.4483 -0.9329 0.3065
-1.1077 -0.8988 -0.0189
-1.4921 -1.0125 0.3091
-1.3026 -0.9157 -0.1967
-1.8873 -0.9654 0.3356
-1.7136 -0.9328 0.4910
-1.2813 -0.7984 -0.1151
-1.8768 -0.9687 0.2648
-0.7516 -1.0546 0.3589
-1.6753 -0.9387 0.1789
-1.1784 -0.9158 -0.0587
-1.2283 -0.9483 0.3358
-1.3611 -0.9476 0.0725
-1.2848 -0.1286 0.1950
-1.6635 -0.9639 0.2487
-1.3323 -0.8643 -0.0903
-1.1120 -0.8436 -0.1245
-0.8238 -0.9389 0.6536
-1.0921 -1.0711 1.0715
-1.3272 -1.0853 1.3107
-1.2952 -0.9148 0.8158
-1.3181 -0.9234 0.8012
-1.1591 -0.9634 0.5883
-1.4710 -0.8910 0.9074
-1.3578 -0.9785 0.5124
-1.8053 -0.8925 0.8110
-1.6957 -1.0173 0.3165
-1.4685 -0.9111 0.1158
-1.2590 -0.9382 -0.1085
-1.2422 -0.9068 -0.2330
-1.5278 -0.8391 0.0201
-1.9472 -1.0180 0.6428
-1.0583 -1.0006 0.2695
-1.1143 -1.0051 0.1440
-0.9063 -0.8195 0.6454
-1.7822 -0.7356 1.1377
-1.6435 -0.6084 1.2228
-1.7042 -0.9304 -0.0022
-1.6056 -0.9179 -0.0565
-1.2899 -0.8277 -0.2052
-1.3871 -0.8472 -0.1344
-1.2591 -0.8205 -0.1984
-1.3805 -0.8309 -0.1108
-1.2961 -0.8631 -0.1533
-1.3533 -0.9157 -0.0572
-1.1768 -0.9039 -0.0970
-1.3942 -0.8583 0.0907
-1.7321 -0.9334 0.3494
-1.2621 -0.8886 0.0576
-1.1415 -0.9234 0.0030
-1.8382 -0.9219 0.1867
-1.1990 -0.9124 -0.0563
-1.3219 -0.8388 0.0981
-1.5453 -0.9339 0.4029
-1.1228 -0.8157 0.0223
-1.7791 -0.9797 0.1176
-1.2698 -0.8742 0.1104
-1.5099 -0.9321 0.2202
-1.2386 -0.8858 -0.0952
-1.6694 -0.9274 -0.0432
-1.4805 -0.9250 0.1266
-1.3100 -0.8951 0.8464
-1.3212 -0.9183 -0.0512
-0.9457 -0.8452 0.6888
-1.2614 -0.9103 0.9686
-1.8878 -0.9348 1.1104
-1.6626 -0.7996 0.8797
-1.5816 -0.9072 0.4360
-1.5626 -0.7574 0.3766
-1.5877 -0.8863 0.3487
-1.8021 -0.8098 0.3207
-1.5770 -0.9137 -0.0181
-1.0064 -0.9968 0.1736
-1.0178 -0.9892 0.0927
-1.2730 -0.9552 0.1473
-1.4729 -0.9803 -0.2178
-1.9229 -0.9139 0.0081
-1.2949 -0.9904 -0.2625
-1.8693 -0.9392 0.0444
-1.8305 -1.0017 1.1242
-1.4173 -0.9590 0.0332
-1.5874 -0.9922 0.6847
-1.8392 -0.9978 0.8629
-1.7718 -0.9678 0.8050
-1.2420 -0.9260 0.7107
-0.8917 -0.9002 0.3694
-1.4414 -0.9406 0.7867
-1.5016 -0.9439 0.8082
-1.4202 -0.9537 0.7452
-1.5372 -0.9460 0.7066
-0.8457 -0.8228 0.4661
-1.0936 -0.9598 0.7472
-1.6817 -0.8881 1.1319
-1.5942 -1.0839 0.1818
-1.6651 -0.9650 0.8876
-0.9365 -0.8753 0.3407
-1.3278 -0.9179 0.6387
-1.8705 -0.9118 1.0401
-1.8833 -0.8801 0.9541
-1.7319 -1.0021 0.5535
-1.3594 -0.9375 -0.0186
-1.3166 -0.9594 -0.0975
-1.7470 -0.9524 -0.0235
-0.5963 -0.8835 0.3337
-1.5506 -0.9580 -0.3176
-1.5433 -0.9387 -0.2745
-1.9915 -0.8756 -0.0365
-1.5640 -0.9931 -0.0172
-1.7600 -1.0580 0.6730
-1.1387 -0.5414 0.2713
-1.4639 -1.1039 0.8070
-1.3178 -0.9590 -0.0299
-1.5454 -0.9602 0.1386
-1.7157 -0.9719 -0.2312
-1.4338 -0.0583 0.0824
-1.6809 -0.9710 0.6799
-1.3668 -1.0112 0.1256
-1.5746 -1.0056 0.2417
-1.8410 -1.0241 0.7591
-1.0739 -1.0188 -0.0254
-1.7457 -0.9453 -0.1571
-1.4358 -0.9494 -0.2646
-1.3396 -0.9309 -0.2815
-1.9118 -0.9700 0.1769
-1.5002 -0.9126 -0.2552
-1.9433 -0.9653 0.0542
-1.9392 -1.0974 1.0706
-1.4304 -1.0327 0.0910
-0.9236 -0.9175 0.4086
-1.5214 -0.9813 0.6231
-1.8151 -1.0222 -0.1996
-1.7657 -1.0773 1.0313
-1.2360 -0.8196 0.2869
-1.2369 -1.0368 0.1768
-1.9219 -0.1830 0.5187
-1.8139 -0.9677 0.8085
-1.7956 -0.9913 0.7761
-1.1980 -1.0376 0.5491
-1.5782 -0.8897 0.4609
-1.6072 -1.0211 0.4034
-1.5696 -0.8646 0.2803
-1.3480 -0.9000 0.1366
-1.3565 -1.0300 0.1032
-1.5905 -0.9326 0.2338
-1.7480 -0.9407 0.3067
-1.5375 -1.0566 0.1550
-1.6399 -0.9134 0.1143
-1.4241 -0.9950 -0.0219
-1.8897 -0.8758 0.1882
-1.6611 -0.9151 0.0618
-1.6603 -0.9857 0.0686
-1.8346 -0.9730 0.1407
-1.6220 -1.0002 0.0164
-1.4122 -1.0244 -0.1177
-1.5373 -0.8886 -0.0675
-1.6762 -0.8913 -0.0168
-1.8670 -0.9569 0.0022
-1.6399 -1.0378 -0.1506
-1.9231 -0.9385 -0.0075
-1.9793 -0.1724 0.2762
-1.8793 -0.9332 -0.1058
-1.6205 -0.9116 -0.2147
-1.7796 -1.0310 -0.2415
-2.0250 -1.0377 -0.1694
-1.8194 -0.8887 -0.2536
-1.8935 -0.8606 -0.2285
-1.4515 -1.0028 -0.2318
-1.6576 -0.9473 0.5546
-1.4845 -1.0163 0.1065
-1.6045 -1.0541 -0.0457
-2.0316 -0.9519 -0.0413
-1.6952 -0.8307 0.4562
-1.5883 -0.8524 0.4117
-1.9159 -0.1598 0.4728
-2.1310 -0.1830 0.2661
-1.6479 -0.8599 0.8297
-1.4955 -0.8513 0.2582
-1.8078 -0.9821 0.1139
-2.1934 -0.2169 0.2980
-2.1629 -0.1449 0.2660
-1.5733 -0.8070 -0.1777
-1.2286 -0.9357 -0.1230
-2.0685 -0.1489 0.2478
-2.1462 -0.1702 0.2742
-2.0938 -0.1569 0.2319
-1.9456 -1.0173 -0.0872
-1.5694 -0.8937 0.5425
-2.1182 -0.1461 0.4757
-2.2110 -0.2701 0.5443
-1.6884 -0.8106 0.5731
-1.3948 -0.8694 1.0437
-1.4156 -0.9237 0.6757
-1.4110 -0.9209 0.7538
-1.1341 -0.9218 1.4018
-1.4341 -0.9595 1.7439
-0.7474 -0.9702 1.3704
-0.7518 -0.9748 1.6167
-0.9357 -0.9376 1.4247
-1.2163 -1.0289 1.5546
-1.2372 -0.9391 1.2890
-1.2342 -0.9498 0.9670
-1.2710 -0.9637 1.5155
-1.2813 -0.9816 1.2714
-1.3418 -0.9843 0.7387
-0.7259 -0.9767 1.6156
-1.0286 -0.9171 1.4799
-1.0930 -0.9546 0.9847
-0.7007 -0.7161 0.6440
-0.7223 -0.6959 0.6639
-0.6296 -0.7794 0.9106
-0.4790 -0.8962 1.4010
-0.6633 -0.9086 0.9386
-0.3251 -1.0156 2.5048
-0.7177 -0.9483 1.2663
-0.9214 -1.0081 1.0899
-1.0350 -0.9318 0.8554
-1.1572 -0.9787 1.9407
-1.3398 -0.9468 1.2628
-0.4511 -1.0322 1.9477
-0.8943 -0.9675 1.6219
-0.9836 -0.9385 0.9734
-1.4592 -0.9939 1.1482
-0.8671 -0.8804 0.6671
-0.6168 -0.4102 0.9611
-0.3278 -0.9899 1.6629
-1.3378 -0.9759 1.7114
-1.3204 -0.9445 0.8663
-1.1993 -1.0038 1.9434
-0.4489 -0.9794 2.4048
-0.7223 -0.9608 1.5879
-0.9177 -0.9348 0.8583
-0.9257 -0.9283 0.9006
-0.9359 -0.9208 0.8438
-1.0159 -0.9303 0.5856
-0.8879 -0.9762 1.3780
-0.9756 -0.9235 1.3431
-1.2389 -0.9647 1.4484
-0.1048 -0.9716 2.1336
-0.8340 -0.8444 0.6771
-0.5313 -0.9454 1.7691
-1.2948 -0.9466 1.3496
-1.3699 -0.9398 1.1101
-0.7817 -1.0469 0.9736
-0.6401 -0.8538 0.9699
-0.7155 -0.9311 0.4918
-0.8381 -0.8673 0.6457
-1.3478 -0.8966 0.5408
-0.9744 -0.9215 0.4263
-0.7472 -0.9601 1.4425
-0.6381 -0.4417 0.9767
-0.6540 -0.4739 0.9462
-0.7361 -0.9616 1.2573
-1.1042 -0.9288 1.4265
-0.8631 -0.8901 0.6718
-0.6339 -0.4318 0.9204
-0.5735 -0.8362 0.3229
-0.6914 -0.9467 1.7305
0.1866 -0.8261 1.1283
0.1400 -0.8459 1.1301
-0.4226 -0.1315 0.8992
-0.6802 -0.0448 0.8847
-1.7672 -0.8229 1.3481
0.1025 -0.6906 0.9546
-0.0184 -0.4324 0.9488
0.1351 -0.7721 1.0175
0.0220 -0.7417 1.0750
-0.2893 -0.4416 0.8992
-0.5582 -0.8274 0.3451
0.1053 -0.9279 1.2149
-0.0387 -0.3921 0.9378
-0.5502 -0.8358 0.3249
-0.6121 -0.7892 0.3493
-0.6963 -0.5197 1.0501
-0.5808 -0.9203 0.2878
-0.0053 -0.4521 0.9451
0.1399 -0.7005 1.0609
0.1193 -0.8450 1.1019
-0.0834 -0.3838 1.0332
0.1168 -0.8612 1.1874
-0.6620 -0.2362 0.8610
-0.7037 -0.5262 0.9633
-0.6734 -0.4328 0.9206
-0.7491 -0.9522 0.3633
-0.0661 -0.4203 0.9890
-0.3439 -0.9294 0.1218
-0.2539 -0.8714 1.1902
-0.6461 -0.9415 0.2392
-0.8560 -0.8859 0.3635
-1.0875 -0.9366 0.5361
-0.9105 -0.9791 0.4095
0.3357 -0.7037 1.0434
0.3094 -0.7318 1.0721
-0.6059 -0.8512 0.3213
0.1521 -0.6556 0.9721
0.0580 -0.8667 0.7848
0.0796 -0.8502 0.7847
-0.6674 -0.3821 0.9503
0.1505 -0.7398 1.0505
-0.0903 -0.4442 0.9840
-0.1376 -0.2665 0.9572
-0.6487 -0.2561 0.8705
0.1052 -0.9311 1.1268
-0.0715 -0.5068 1.0251
-0.6126 -0.9673 1.2812
0.0811 -0.7708 0.9065
-0.5775 -0.9118 0.1320
0.1485 -0.7404 1.0191
0.0918 -0.8302 0.7847
0.2649 -0.7129 0.8887
0.2532 -0.6031 1.0211
-0.3386 -0.8781 0.1906
-0.3134 -0.3110 0.9024
-0.8576 -0.9244 0.6030
-0.3129 -0.1637 0.8651
-0.0356 -0.7788 1.0362
-0.3145 -0.0982 0.8426
0.0722 -0.8807 0.8076
0.0681 -0.9164 0.7721
-0.6551 -0.4386 0.9478
-0.1040 -0.2490 0.9704
-0.0765 -0.4654 1.0456
-0.0578 -0.6850 1.0264
-0.0618 -0.5368 1.0903
-0.2314 -0.3819 0.8030
-0.4452 -0.1797 0.9059
-0.2801 -0.3692 0.9064
-0.4392 -0.1455 0.8732
-0.4219 -0.0798 0.8778
-0.3195 -0.0532 0.8550
-0.3331 -0.3983 0.8802
-0.6649 -0.8960 0.3553
-0.2729 -0.1871 0.8291
0.3054 -0.7168 1.0413
-0.1020 -0.0453 0.6728
-0.3330 -0.1232 0.8681
-0.3170 -0.0955 0.8699
-0.2937 -0.0393 0.8658
-0.3511 -0.2343 0.3641
-0.4604 -0.0672 0.8778
-0.2587 -0.0604 0.8588
-0.3085 -0.0521 0.8700
-0.2448 -0.2756 0.7303
-0.2864 -0.0275 0.8562
-0.4621 -0.3387 0.5495
-0.5205 -0.3004 0.4486
-0.5740 -0.8589 0.3108
-0.9263 -0.7736 0.4396
-0.3125 -0.0288 0.8672
-0.3015 -0.3512 0.3652
-0.6756 -0.4526 0.9338
-0.2033 -0.3374 0.9115
-0.3078 -0.0518 0.8387
-0.3588 -0.0855 0.8578
-0.3429 -0.0247 0.8725
-0.5576 -0.8409 0.3466
-0.0360 -0.1482 0.7441
-0.3116 -0.3304 0.9217
0.2442 -0.6001 1.0378
0.0996 -0.7596 0.9169
-0.7761 -0.9064 0.3779
-0.7908 -0.9014 0.3851
0.2811 -0.6454 1.0421
-0.6212 -0.8375 0.3500
-0.6058 -0.8511 0.3228
0.2879 -0.7044 1.1027
-0.3122 -0.0093 0.8731
-0.2993 -0.0757 0.8498
-0.0749 -0.4171 1.0135
-0.8856 -0.8922 0.4059
-0.3383 -0.0461 0.8673
0.1055 -0.7912 0.9657
-0.6320 -0.3981 0.9525
-0.0851 -0.3106 0.9614
-0.6052 -0.8836 0.3013
-0.5501 -0.8061 0.3402
-0.5002 -0.3281 0.5633
-0.7834 -0.9035 0.3703
-0.7027 -0.9386 0.3639
-0.5985 -0.8257 0.3509
-0.3030 -0.4551 0.9231
0.0634 -0.8083 0.9574
0.0761 -0.8454 1.1353
-0.5989 -0.3699 0.9485
-0.6523 -0.4285 0.9440
-0.6062 -0.4091 0.9543
-1.0997 -0.9560 1.4506
-1.0846 -0.9522 0.9878
-0.7116 -0.8921 1.4851
-0.7927 -0.6213 0.6434
-1.0133 -0.9567 1.5252
-0.0952 -0.5114 1.0985
-0.8696 -0.8625 0.5925
-0.9306 -0.9406 0.8634
-0.8759 -0.8946 1.3408
-1.6648 -0.8923 0.6054
-1.4168 -0.8640 1.2137
-1.4319 -1.0036 1.2546
-1.7544 -1.0324 1.7146
-1.5048 -0.9491 1.0851
-1.4623 -0.9205 1.0101
-1.5104 -0.9037 0.5663
-1.7951 -0.9377 0.8521
-1.8613 -0.9002 0.9631
-1.7787 -0.9428 0.7936
-1.5238 -0.9255 0.6578
-1.5477 -0.9330 0.5849
-1.5099 -0.8940 0.2617
-1.6857 -0.8963 0.3939
-1.7138 -0.8894 0.3915
-1.6219 -0.9049 0.2732
-1.7862 -0.8828 0.4049
-1.6346 -0.8879 0.1941
-1.5150 -0.8821 0.0484
-1.8693 -0.9008 0.3777
-1.5164 -0.8747 0.0179
-1.2828 -0.8855 0.9894
-1.8601 -0.8907 0.6029
-1.8420 -0.1671 0.7147
-2.0154 -0.2022 0.4495
-1.8740 -0.1656 0.4957
-2.0649 -0.2104 0.2759
-0.9068 -0.9187 0.6151
-1.6277 -0.8043 0.1299
-1.6309 -0.8300 0.1022
-2.1431 -0.1847 0.3049
-2.0466 -0.1845 0.2967
-1.9936 -0.2035 0.2859
-1.9617 -0.1955 0.2838
-2.0858 -0.1850 0.2858
-1.6883 -0.9128 -0.1226
-2.1550 -0.1695 0.5482
-1.8724 -0.1979 0.5085
-2.1832 -0.1616 0.3153
-2.2829 -0.2745 0.3023
-2.0068 -0.1667 0.2951
-1.6902 -0.8619 0.1235
-1.9776 -0.1853 0.2746
-1.8861 -0.9947 1.3745
-1.6472 -0.8671 0.6371
-2.1409 -0.2196 0.6461
-2.3373 -0.2273 0.6073
-2.3132 -0.2159 0.5596
-2.2593 -0.2117 0.5679
-2.2254 -0.2325 0.5621
-2.4142 -0.2023 0.5725
-2.1527 -0.2170 0.5408
-1.9542 -0.2073 0.5245
-1.9511 -0.2052 0.5078
-2.0205 -0.2189 0.4569
-2.1708 -0.1713 0.4347
-2.3940 -0.2033 0.3280
-2.3541 -0.1913 0.3337
-2.0892 -0.1857 0.3346
-2.4703 -0.2250 0.3274
-2.3683 -0.1778 0.3222
-2.0847 -0.2045 0.2979
-2.3356 -0.2244 0.0813
-2.3297 -0.1929 0.0843
-2.1279 -0.1911 0.0542
-2.2578 -0.1825 0.3197
-2.4258 -0.2237 0.5699
-2.2221 -0.1465 0.5275
-1.7804 -0.8744 1.0163
-2.1999 -0.2621 0.5695
-1.9876 -0.1985 0.5264
-1.9908 -0.2026 0.5168
-2.0584 -0.2124 0.3267
-1.9098 -0.1957 0.2674
-2.1153 -0.1998 0.0653
-2.2048 -0.2274 0.3076
-2.0271 -0.1410 0.5842
-2.1895 -0.2035 0.5966
-2.1069 -0.2102 0.5437
-2.0471 -0.1915 0.5426
-2.0116 -0.1974 0.5300
-2.1084 -0.2114 0.2889
-2.4941 -0.2195 0.0956
-2.1250 -0.1895 0.1429
-2.3105 -0.2154 0.0956
-2.2956 -0.2004 0.6378
-2.2032 -0.1898 0.5740
-2.0497 -0.1946 0.5921
-2.1518 -0.2369 0.5648
-1.8699 -0.2085 0.5071
-2.1027 -0.2182 0.5253
-2.3471 -0.2024 0.1150
-2.4534 -0.2062 0.3342
-2.1500 -0.2134 0.4050
-2.0657 -0.2197 0.5343
-2.0506 -0.1983 0.5418
-1.8599 -0.2301 0.5269
-2.2491 -0.1876 0.5403
-2.0659 -0.2138 0.4471
-1.9827 -0.2180 0.3503
-2.0927 -0.2733 0.2752
-2.4143 -0.2247 0.5882
-2.0665 -0.2013 0.6204
-2.0064 -0.1788 0.5680
-2.3222 -0.1698 0.5969
-2.1340 -0.2135 0.5268
-2.2536 -0.2261 0.4753
-2.1741 -0.2232 0.2907
-2.1524 -0.2076 0.2919
-2.0689 -0.1843 0.4502
-2.2329 -0.2094 0.5406
-2.2332 -0.1998 0.5659
-2.0413 -0.1954 0.6743
-2.1379 -0.2159 0.5924
-2.0547 -0.1542 0.5144
-2.3419 -0.2101 0.5806
-2.2586 -0.2176 0.5499
-2.1947 -0.2098 0.3123
-2.3264 -0.2092 0.2906
-2.1157 -0.2057 0.2869
-2.2269 -0.2355 0.2822
-1.9069 -0.2077 0.2566
-1.9029 -0.2158 0.2433
-2.2685 -0.1661 0.2300
-2.4095 -0.1947 0.5789
-2.0553 -0.2199 0.5412
-2.0716 -0.2177 0.5683
-2.3579 -0.2581 0.6179
-1.8758 -0.2382 0.5110
-2.0312 -0.1744 0.5131
-2.2616 -0.2369 0.4183
-2.2666 -0.1662 0.4839
-2.0784 -0.2180 0.4094
-2.2536 -0.2105 0.3989
-1.8419 -0.2127 0.2912
-1.9749 -0.2015 0.3010
-1.9666 -0.2126 0.2854
-2.2915 -0.2204 0.5543
-2.2289 -0.2140 0.3026
-2.4576 -0.3093 0.8889
-2.3799 -0.2068 0.6139
-2.4706 -0.2305 0.3252
-2.3880 -0.2577 0.2196
-1.8711 -0.2167 0.5106
-1.9989 -0.2737 0.5486
-2.1529 -0.2235 0.5853
-2.0552 -0.1826 0.5459
-2.1423 -0.1860 0.4544
-1.9107 -0.0372 0.3027
-1.9509 -0.2102 0.2837
-2.2811 -0.2147 0.3089
-2.3647 -0.2104 0.3051
-2.2732 -0.2019 0.1788
-2.1156 -0.1763 0.6178
-2.2180 -0.2614 0.2872
-2.0702 -0.2127 0.2576
-2.2303 -0.2099 0.5563
-2.2335 -0.2024 0.4943
-2.2381 -0.2019 0.4303
-2.3046 -0.1932 0.2968
-2.2120 -0.1657 0.5444
-2.1155 -0.2093 0.5313
-2.0651 -0.2061 0.5282
-2.1556 -0.2129 0.5353
-2.1481 -0.2068 0.5688
-2.1128 -0.2106 0.5488
-2.2369 -0.2238 0.2622
-2.3729 -0.1768 0.3090
-2.2164 -0.1849 0.5211
-2.0481 -0.2200 0.5159
-2.1827 -0.1749 0.4206
-2.2719 -0.1735 0.2286
-2.2700 -0.2170 0.2660
-2.3048 -0.2105 0.1659
-2.1806 -0.2789 0.5525

