-0.1000 -0.4747 0.0982
-0.0959 -0.4581 0.1852
-0.0845 -0.4660 0.1774
-0.1057 -0.4869 0.0740
-0.1436 -0.4128 0.3216
-0.1098 -0.4030 0.1033
0.0032 -0.0450 0.0127
-0.0087 -0.1044 0.0251
-0.0478 -0.1483 -0.0483
-0.0255 -0.0573 0.0310
0.0493 -0.1098 0.0206
-0.0122 -0.1472 0.0316
0.0175 -0.0716 0.0645
0.0089 -0.0168 0.0020
-0.0008 -0.0500 0.0133
-0.0001 0.0048 -0.0010
0.0357 -0.1451 0.0860
0.1577 -0.5888 0.1897
0.0110 -0.0029 -0.0030
-0.0133 -0.0769 0.0007
-0.1567 -0.8657 0.4310
-0.0779 -0.9276 0.2444
0.0011 -0.0032 -0.0022
0.0153 0.0195 0.0356
0.0232 -0.0120 0.0018
-0.0053 -0.0201 0.0040
0.1568 -0.5621 0.3768
0.1607 -0.5861 0.3004
0.1278 -0.5584 -0.0236
0.1581 -0.5262 0.3617
0.1555 -0.5696 0.2108
-0.0866 -0.5517 0.2065
-0.0732 -0.5676 0.4407
0.1288 -0.5245 0.2799
-0.1354 -0.6009 -0.0358
-0.0965 -0.5630 0.1488
0.2861 -0.5747 0.1160
0.0813 -0.5418 0.3132
0.0232 -0.5685 0.2414
0.2614 -0.5711 -0.0340
0.1457 -0.5304 0.1137
-0.0924 -0.5419 0.2220
0.1756 -0.5622 0.4217
0.1650 -0.5555 0.2032
0.2534 -0.5282 0.1870
-0.1515 -0.5344 0.4552
-0.0929 -0.5477 0.2233
-0.1411 -0.5931 0.1815
0.1793 -0.5693 0.4594
0.0601 -0.5534 0.3232
0.1395 -0.6430 0.4703
0.2876 -0.5124 0.1730
0.2389 -0.4944 0.2704
0.2219 -0.5317 0.3023
0.1264 -0.5607 -0.0404
0.1686 -0.5697 0.1865
0.1514 -0.5859 0.1335
0.1724 -0.5733 0.3202
0.1341 -0.5700 0.3817
-0.0743 -0.5337 0.1152
-0.0948 -0.5549 0.0824
-0.0911 -0.5564 0.2556
-0.0949 -0.5466 0.1756
-0.1031 -0.5584 0.1080
-0.1700 -0.5395 0.2190
-0.1730 -0.5531 0.1699
-0.1816 -0.5488 0.1889
-0.0989 -0.5559 0.2575
-0.0963 -0.5358 0.1486
-0.0995 -0.5351 0.1190
-0.1047 -0.5569 0.1209
0.1536 -0.5414 0.2287
0.2320 -0.5528 0.1178
0.1430 -0.5683 0.1067
0.1915 -0.5521 0.1214
0.1358 -0.5632 0.0009
0.1462 -0.5541 0.0859
0.1509 -0.5875 0.2459
0.2228 -0.5783 0.4847
0.2121 -0.6721 0.4399
-0.1015 -0.5771 0.3580
-0.1066 -0.5783 0.2671
-0.0737 -0.5731 0.4650
0.1962 -0.5572 0.4047
0.2024 -0.6193 0.5104
0.1922 -0.5790 0.0292
0.1678 -0.5158 0.0798
0.0337 -0.5574 0.1482
-0.1273 -0.5621 -0.0401
0.2599 -0.5698 0.1196
0.2266 -0.5319 -0.0021
0.1564 -0.5579 0.1770
-0.0681 -0.5877 0.5239
0.4263 -0.5714 0.3003
0.4302 -0.5845 0.2892
0.3232 -0.5629 0.2930
0.1468 -0.5672 0.2325
0.1688 -0.5701 0.3488
0.1615 -0.5644 0.3113
0.1703 -0.5723 0.3221
0.0651 -0.5168 0.3206
-0.0567 -0.5739 0.3290
0.1320 -0.5678 0.0083
-0.1336 -0.5599 -0.0417
0.1660 -0.5936 0.3257
-0.0372 -0.5672 0.4985
0.1899 -0.5374 0.2905
0.1544 -0.5453 0.2270
-0.0556 -0.5698 0.1171
-0.1025 -0.5625 0.1452
-0.1124 -0.5570 0.1459
-0.0153 -0.5510 0.1492
-0.0787 -0.5592 0.2411
0.2590 -0.4752 -0.1109
0.1295 -0.5355 0.0202
0.1793 -0.5460 0.0757
-0.1130 -0.5912 0.0900
-0.0964 -0.5572 0.1947
0.1349 -0.5454 0.0252
-0.1022 -0.5550 0.0715
0.1427 -0.5308 0.3711
0.0599 -0.5947 0.1587
0.1334 -0.5531 0.1185
-0.1107 -0.5779 0.0507
-0.0961 -0.5465 0.1353
0.1251 -0.5791 -0.0643
0.1147 -0.5504 0.2747
0.2739 -0.5468 0.1354
0.1116 -0.5599 0.1132
0.0736 -0.5198 0.2958
0.1222 -0.5479 0.3286
-0.1159 -0.5408 0.0524
-0.1263 -0.5682 -0.0382
0.0033 -0.2351 0.1081
0.4119 -0.5767 0.1133
0.1223 -0.5578 0.4434
0.3496 -0.4967 0.0790
0.1449 -0.5687 0.1902
-0.0878 -0.5674 0.0578
-0.0996 -0.5666 0.2300
0.2134 -0.5613 0.4699
0.1961 -0.5682 0.4106
0.1537 -0.5702 0.2768
0.1318 -0.5557 0.2977
-0.1111 -0.5426 0.0510
-0.0750 -0.5472 0.3574
0.1221 -0.5424 -0.0400
0.1535 -0.5733 0.2486
0.2558 -0.5465 0.2877
0.1463 -0.5563 0.1245
0.1908 -0.5471 0.2641
0.1506 -0.5594 0.1791
0.1577 -0.5436 0.3283
-0.0971 -0.5479 0.1720
-0.0949 -0.5592 0.3412
0.1592 -0.5634 0.3111
0.1211 -0.5578 -0.0633
-0.0774 -0.5331 0.2223
0.0623 -0.5513 0.2566
-0.1321 -0.5569 -0.0434
-0.1308 -0.5563 -0.0420
-0.0631 -0.3611 0.1128
0.4101 -0.5566 0.2753
0.4146 -0.6063 0.2963
0.4248 -0.6037 0.4031
0.0047 -0.5729 0.4538
-0.1046 -0.5698 0.2614
0.1605 -0.5492 0.3072
-0.1230 -0.5482 0.3168
-0.1129 -0.5598 0.1217
0.1510 -0.5439 0.0061
0.1506 -0.5614 0.1203
-0.0930 -0.5692 0.2838
0.1704 -0.5354 0.3457
-0.0389 -0.5428 0.4723
-0.1321 -0.5599 0.1010
0.1286 -0.5563 0.0075
0.1217 -0.5638 0.4084
-0.1314 -0.5708 0.2343
0.2074 -0.5784 -0.1630
0.1074 -0.2374 0.1111
0.0363 -0.4111 0.0647
0.1138 -0.5640 -0.0660
0.1327 -0.5529 0.1190
-0.0534 -0.5448 0.1086
-0.0981 -0.5596 0.1774
-0.0836 -0.5830 0.2490
0.1579 -0.5512 0.2610
0.1728 -0.5424 0.4390
-0.0403 -0.6773 0.1935
-0.0978 -0.5539 0.2054
-0.1162 -0.5778 0.3426
-0.1828 -0.5803 0.1773
0.1448 -0.5409 0.3730
0.1602 -0.5634 0.2690
0.2007 -0.5817 0.4212
0.1590 -0.5728 0.4382
0.0311 -0.5168 0.1733
-0.0637 -0.6114 0.1513
-0.0744 -0.5056 0.0472
0.0744 -0.5314 -0.1196
0.1577 -0.5554 0.2331
-0.0329 -0.5436 0.2435
-0.1092 -0.5682 0.0300
-0.0880 -0.5484 0.2016
-0.1340 -0.5670 -0.0418
-0.1010 -0.5818 0.2397
-0.1285 -0.5499 -0.0418
0.1364 -0.5757 0.2662
-0.1068 -0.5630 0.0480
0.0678 -0.5256 0.3757
-0.0985 -0.5913 0.2718
0.1646 -0.5682 0.4132
0.1776 -0.5800 0.4356
0.4378 -0.5825 0.4944
0.3925 -0.5886 0.1881
0.1870 -0.5786 0.0966
0.1675 -0.5673 0.0665
0.1482 -0.5657 0.2321
0.1655 -0.5638 0.3429
0.1695 -0.5735 0.5106
0.1994 -0.6625 0.0772
0.2743 -0.5475 0.1082
0.1327 -0.5584 0.2980
-0.0752 -0.5636 0.4528
-0.0537 -0.5587 0.3189
0.4344 -0.6072 0.2169
0.4030 -0.5712 0.3772
0.0227 -0.5529 0.2323
0.1240 -0.5692 -0.0630
0.3382 -0.5535 0.3001
0.1551 -0.5643 0.2095
-0.1419 -0.5810 0.1556
0.1904 -0.5527 0.1216
0.3870 -0.5529 0.0937
0.1656 -0.5426 0.3738
0.1810 -0.5613 0.4841
0.0694 -0.5278 0.3142
0.0263 -0.5691 0.3239
0.0718 -0.5589 0.3490
0.4063 -0.5867 0.2092
0.1588 -0.5678 0.1822
0.3993 -0.5782 0.2836
0.1152 -0.5534 0.1208
0.1483 -0.5791 0.1335
0.1376 -0.5727 0.0256
0.1844 -0.5640 0.1268
0.4049 -0.5651 0.1108
0.1659 -0.5528 0.3088
-0.0761 -0.5426 0.3431
-0.0672 -0.5695 0.5028
0.1664 -0.5580 0.2032
0.1334 -0.5702 0.0222
-0.0799 -0.5600 0.1257
0.1884 -0.5358 0.3203
0.1217 -0.6132 0.1292
0.1573 -0.5734 0.2780
0.2402 -0.5792 0.1267
-0.1066 -0.5680 0.0840
0.2348 -0.5371 0.1122
0.2105 -0.5753 0.3272
-0.1152 -0.5620 0.0542
-0.1166 -0.5793 0.1281
-0.1030 -0.5641 0.1547
0.1308 -0.5608 0.0083
0.1296 -0.5696 -0.0247
0.1299 -0.5593 -0.0087
-0.1053 -0.5618 0.1107
-0.1031 -0.5651 0.0742
0.2489 -0.5780 -0.0027
0.1134 -0.5641 -0.0670
0.1222 -0.5621 -0.0637
0.1180 -0.5790 -0.0654
0.0635 -0.5621 0.2619
0.1365 -0.5620 0.1512
0.1414 -0.5620 0.1047
-0.0949 -0.5487 0.2227
-0.1255 -0.5768 0.2610
0.1569 -0.5941 0.2559
0.2551 -0.5369 0.1898
0.2870 -0.5764 0.1160
0.2871 -0.5188 0.1746
0.1420 -0.5498 0.1989
-0.0618 -0.5510 0.2234
0.1377 -0.5167 0.2099
0.1663 -0.5805 0.2779
-0.0980 -0.5563 0.1541
0.1405 -0.5475 0.1123
0.1391 -0.5910 0.2753
0.1199 -0.5730 0.2877
-0.1234 -0.5420 0.2201
0.1694 -0.5381 0.0230
-0.1030 -0.5646 0.1103
0.1945 -0.5653 0.1247
0.2175 -0.5371 0.1136
0.1585 -0.5699 0.2408
0.1611 -0.5682 0.3133
0.3997 -0.5661 0.3728
-0.0778 -0.5340 0.4101
0.2019 -0.6255 0.4088
0.1316 -0.5480 0.2908
-0.0903 -0.5847 0.2390
-0.1680 -0.5516 0.1850
-0.1792 -0.5687 0.1719
0.1617 -0.5438 0.0574
0.1892 -0.5414 0.3892
0.1749 -0.5269 0.4292
0.0331 -0.5460 0.1849
0.2574 -0.5402 0.2982
0.0279 -0.5046 0.3057
-0.0824 -0.5303 0.1939
-0.1064 -0.5653 0.1286
-0.0942 -0.5779 0.2892
-0.1436 -0.5835 0.1563
0.1498 -0.5674 0.3846
0.1290 -0.5681 -0.0074
0.1633 -0.5504 0.3084
0.1574 -0.5607 0.2466
0.2594 -0.5693 0.1196
0.1409 -0.5648 0.0961
0.4344 -0.6138 0.2129
0.1202 -0.5149 -0.0381
-0.0781 -0.5550 0.2358
-0.1099 -0.5768 0.2704
0.1719 -0.5545 0.4156
0.1366 -0.5716 0.0232
0.1291 -0.5500 0.3683
0.0319 -0.5353 0.1403
0.0231 -0.5666 0.2391
-0.1108 -0.5673 0.0278
-0.1075 -0.5699 0.0500
-0.0366 -0.5370 0.4668
-0.0992 -0.5567 0.2547
-0.0738 -0.5644 0.4545
0.1481 -0.5342 0.0078
0.1440 -0.5693 0.2380
-0.1101 -0.4810 0.1470
-0.0831 -0.5421 0.4442
0.1291 -0.5421 0.2680
0.1222 -0.5875 0.2931
0.0793 -0.5374 0.3091
-0.1056 -0.5597 0.0680
-0.0971 -0.5357 0.1035
-0.1052 -0.5792 0.1506
-0.0860 -0.5318 0.2436
-0.1020 -0.5606 0.2570
-0.0904 -0.5774 0.3442
-0.1653 -0.5625 0.2763
-0.1292 -0.5759 -0.0400
0.1498 -0.5364 0.1699
0.1027 -0.5817 0.2724
-0.0963 -0.5532 0.1383
0.0505 -0.2026 0.1106
0.1570 -0.5736 0.0095
-0.1276 -0.5770 -0.0378
-0.0877 -0.3094 0.0900
0.3387 -0.5510 0.2975
0.1725 -0.5467 0.3161
-0.0940 -0.5427 0.1739
-0.1019 -0.5775 0.3534
-0.1786 -0.5707 0.3564
-0.1150 -0.5585 0.0543
0.1645 -0.5377 0.3717
0.0930 -0.5259 0.4046
0.1302 -0.5774 -0.0411
-0.0806 -0.5237 0.1961
-0.1569 -0.5436 0.3490
-0.0961 -0.5594 0.2276
0.1537 -0.5640 0.2884
0.3045 -0.5231 0.2529
0.1317 -0.5709 0.2674
0.0710 -0.5567 0.3325
0.0232 -0.5490 0.2326
0.1506 -0.6046 0.2194
0.1151 -0.5210 0.4144
0.1531 -0.5701 0.1234
0.1080 -0.6121 0.2863
-0.1176 -0.5327 -0.0355
0.1281 -0.5599 -0.0230
0.1122 -0.5590 -0.0651
-0.0909 -0.5463 0.2491
-0.1028 -0.5500 0.1257
-0.0936 -0.5459 0.1389

