-0.4722 -2.5228 2.8865
0.3453 -2.3286 3.1648
2.2421 -8.0728 12.3903
0.6899 -3.6668 6.8043
0.8285 -1.7867 3.2150
-1.2144 -2.0529 3.3536
1.4536 -0.8885 3.9439
0.6550 -0.7022 1.9145
0.3424 -0.3892 1.3753
-0.0254 -2.0194 0.9841
-0.6084 -2.7600 3.1538
0.9673 -2.0648 1.0841
0.1648 -0.5407 1.5395
0.5816 -2.2120 0.7566
0.0422 -0.7296 3.0566
-0.5869 -0.7128 1.7391
-0.0244 -0.2232 0.1192
-0.8442 -0.8846 3.0458
4.5981 -2.5352 9.7083
2.4363 -1.6904 5.9841
-0.6216 -2.7079 3.0811
-0.0089 -0.1347 0.0921
3.6492 -1.9138 7.8063
0.9492 -1.8666 2.9834
0.0846 -0.2184 0.1466
-0.1400 -2.8333 3.2007
-0.3013 -0.5139 1.8720
-0.2404 -0.6462 1.9187
-5.0600 -4.8586 15.3049
-0.2786 -0.7954 3.1918
-1.5908 -2.2046 8.6382
-1.1144 -1.0816 4.0817
0.0214 -0.4435 0.2530
-0.5467 -3.0809 12.8512
-0.4849 -1.5296 2.5315
-0.6162 -0.6894 2.0352
-0.5663 -2.6281 0.8915
-5.1448 -5.1450 15.3530
-0.5198 -1.7845 3.0614
0.7003 -0.6115 1.9399
0.6667 -0.5079 1.9434
0.6892 -0.6401 1.9659
-0.4100 -0.5176 1.9188
-0.4086 -0.4737 1.8562
0.9246 -0.7067 2.4834
-0.3361 -0.4973 1.3932
0.1074 -1.8668 0.9494
0.1263 -0.4270 0.2520
-0.8622 -3.2022 1.1292
1.5823 -1.2608 4.0991
-0.4430 -4.6884 1.5547
2.9298 -2.0659 7.3743
0.1170 -1.7431 4.8171
1.5523 -0.9915 3.9110
1.4884 -5.4069 2.0391
0.6649 -1.2003 3.9615
-0.4844 -3.3363 12.2207
-2.0074 -5.3135 2.1019
0.1264 -0.6548 1.7432
-0.3496 -1.1743 0.3866
0.9328 -3.8237 1.4204
-2.8861 -4.1587 13.7448
-1.2316 -1.4699 5.5394
7.8252 -15.8721 8.4411
1.5466 -11.7913 3.5764
-5.6094 -15.7330 6.6897
0.5186 -0.4646 1.1837
7.8058 -15.7494 10.0238
-6.6010 -14.9861 9.4117
2.1922 -7.7447 2.3441
3.9062 -3.4139 8.7066
1.8872 -1.1823 4.2789
-0.1083 -1.0977 1.2056
-5.8104 -11.7118 14.5377
2.3167 -10.2413 13.5051
-3.2386 -6.4516 8.5961
-3.4688 -7.0626 8.6660
2.8208 -10.1899 14.3484
0.4435 -12.1742 14.6145
-3.7362 -11.1699 13.1331
-3.1376 -12.7206 5.8310
0.7571 -5.4377 2.7825
2.1700 -1.9158 5.2742
-1.4899 -1.9444 7.0756
-2.2353 -2.0596 9.6737
3.5244 -14.1415 13.2093
2.8973 -1.8915 7.5684
-5.3260 -4.6456 15.0716
4.4309 -3.6792 9.3487
-0.2707 -2.4045 0.9614
1.0383 -1.3976 6.1842
4.6231 -5.6173 9.2031
0.4457 -10.3049 15.0854
4.2862 -6.5244 12.2699
-2.6019 -3.4226 13.6913
0.1085 -0.8781 0.4339
2.8124 -2.3924 5.4399
-0.2736 -1.5490 0.9518
-0.7991 -2.4980 2.8810
0.8631 -1.0874 1.2154
-1.5505 -4.4235 3.8751
-1.1371 -5.3785 1.8975
-1.0699 -2.2679 0.4815
-0.0585 -1.4211 2.2579
-1.9957 -2.8598 1.3982
-0.6811 -0.4407 -0.4126
-0.7624 -1.9788 -0.0032
0.0028 -0.0819 0.0225
-0.1479 -0.2558 0.2109
-0.0845 -0.5219 0.2139
-0.3611 -1.6342 0.6968
-0.5587 -0.8270 0.7847
0.0891 -0.2405 0.0535
-0.5518 -0.7892 1.8871
0.1324 -0.8508 2.3284
0.0479 -0.8879 2.3926
0.1984 -0.8750 0.7184
0.2028 -0.8821 0.6843
0.3540 -0.9048 0.8660
0.2310 -0.8288 0.6588
0.1479 -0.1500 0.1787
0.0271 -0.7348 0.2445
0.1446 -0.1471 0.1772
0.0962 -0.1583 0.5202
0.0692 -1.0889 2.3639
-0.2064 -0.8970 2.1730
0.2100 -1.1542 2.9187
-0.2846 -0.8914 2.3386
-0.5562 -1.0120 2.7774
0.0233 -1.4158 0.4828
0.0842 -1.0095 2.4724
-0.1624 -0.8153 2.1685
-0.2600 -0.5591 2.2131
0.4720 -0.8723 0.6812
0.3046 -0.8219 0.6266
0.2340 -0.9094 0.8152
0.0276 -0.8739 1.1480
0.4640 -0.8779 0.7313
-0.0503 -0.8414 0.5545
0.5470 -1.1665 2.6683
-0.3303 -0.6241 2.3399
0.6025 -1.0215 2.7408
0.8214 -0.5030 2.2557
-0.2794 -0.4940 2.0631
0.4850 -0.8247 0.6820
0.4939 -0.8556 0.7559
0.2226 -0.8421 0.6790
0.0758 -0.5520 0.1267
0.0397 -0.7812 1.0101
0.0103 -0.1531 0.0510
0.9317 -0.7003 2.4981
-0.2111 -1.0980 2.3412
0.4270 -0.8573 0.4682
0.4948 -0.9179 0.8081
0.4136 -0.8252 0.5626
0.2402 -0.8463 0.8270
0.0420 -0.6371 0.1333
0.7839 -0.8897 0.8519
0.7350 -0.8388 0.7623
0.3263 -0.8489 0.8615
0.1856 -0.9796 0.6490
0.1344 -0.8583 0.8954
-0.0648 -0.8601 0.5609
0.1732 -0.5663 2.2847
-0.1951 -0.7957 2.2002
0.5036 -0.8405 0.8046
0.6790 -0.8807 0.4491
0.6853 -0.8785 0.4316
0.0610 -0.8489 0.6929
0.0408 -0.8310 1.0523
1.5445 -1.0323 1.9672
1.4230 -0.7859 1.7139
0.7870 -0.8747 1.0022
0.2017 -0.2724 -0.0380
0.1765 -0.4442 0.2084
1.4126 -0.6062 1.9781
1.5875 -1.0304 2.0916
0.5579 -1.3972 2.6924
1.6461 -1.0445 2.0951
0.2196 -0.8871 0.8358
0.2003 -0.8346 0.6366
0.4737 -0.8475 0.6761
0.2259 -0.8308 0.7394
0.2048 -1.1200 0.9949
0.4945 -1.2321 3.4071
0.0771 -1.0260 2.2253
0.7575 -0.8500 0.9540
0.3299 -0.8311 1.4346
0.4485 -0.8632 0.6160
0.7354 -0.8590 0.7727
0.4006 -0.8769 0.1236
0.4465 -0.8531 0.6442
0.0531 -0.5401 0.0509
0.4591 -0.9963 3.2462
0.4165 -1.1263 3.3162
0.2423 -1.2011 0.9924
0.4511 -0.8151 0.6002
0.2472 -0.8892 0.8828
-0.0508 -0.8018 0.5048
0.2428 -0.8603 0.8951
-0.2050 -0.9591 2.0538
0.5058 -0.7948 1.2955
-0.1697 -0.9671 2.0261
0.1825 -0.8606 0.5192
0.4851 -0.8715 0.6558
-0.0017 -0.7488 0.2752
0.4463 -0.8317 0.6784
0.4484 -0.8688 0.6221
0.1850 -0.6516 0.4565
0.1796 -0.8266 0.4908
0.5243 -0.8643 0.8286
0.2278 -0.8385 0.6666
0.4920 -0.8862 0.6743
0.0335 -0.8551 1.0930
0.1639 -0.3528 0.1299
0.3206 -0.8257 0.8324
0.8738 -1.4927 0.3769
0.9364 -1.6235 0.3791
0.4619 -0.8192 0.6465
0.4917 -0.8153 0.7767
0.4726 -0.7926 0.9230
0.2228 -0.8508 0.6913

