0.2822 -0.1371 0.7313
0.0849 -0.0759 0.1247
-0.0411 -0.1200 0.1456
-0.0687 -0.2003 0.0893
0.0552 -0.0733 0.0321
-0.0147 -0.0460 0.0184
-0.0080 -0.1405 0.1029
0.1357 -0.1231 0.6791
0.0124 0.0066 0.0146
-0.1531 -0.4569 0.9170
0.2411 -0.4279 0.4027
0.1238 -0.5210 0.2042
-0.0094 -0.0027 0.0059
0.0201 -0.1595 0.1156
-0.0130 -0.0312 0.0912
0.1210 -0.0100 0.3693
0.0545 -0.1897 0.1157
0.0408 0.0322 0.0011
0.0234 0.0290 0.0009
0.0989 -0.5419 0.2815
0.0237 0.0035 0.0257
0.0055 -0.0164 0.1135
0.1174 -0.1333 0.1270
-0.0115 -0.0898 0.0843
0.1195 -0.0176 0.2934
0.0102 0.0031 0.0051
-0.4977 -1.0840 0.4816
0.4852 -1.2436 0.7389
0.4560 -1.3102 0.7186
0.3076 -0.7950 0.5124
-0.2382 -1.2569 0.5688
0.4490 -0.9915 0.8029
0.5895 -1.0987 0.9379
0.0263 -0.0346 0.3489
0.4288 -0.9578 0.7918
0.6105 -1.5595 0.8784
-0.3753 -1.2398 0.5509
-0.6691 -1.3235 0.7685
-0.0086 -1.2556 0.5478
0.1550 -1.3261 0.6848
0.1553 -1.2868 0.6399
0.4612 -1.3110 0.7149
0.4565 -1.3543 0.9146
-0.1671 -1.2766 0.7457
0.3574 -1.0627 0.8702
0.4010 -1.0732 0.7714
0.4708 -1.1705 0.9821
0.4691 -1.2279 0.7486
0.3740 -1.0589 0.9138
0.3902 -1.2062 0.8337
0.4252 -1.2579 0.7496
-0.1204 -1.2047 0.5269
0.3152 -1.1384 0.9151
0.4111 -1.2310 1.0077
0.5205 -1.1428 0.7808
-0.5653 -1.3650 1.0123
-0.1180 -1.3377 0.5931
0.4400 -1.2188 0.7165
0.3447 -1.2828 0.5505
0.2417 -1.2735 0.7623
-0.2738 -1.4178 0.6205
0.5258 -1.1609 0.9143
0.3841 -1.1331 0.9177
0.5062 -1.1280 0.9075
0.3743 -1.2141 0.9385
-0.3310 -0.6932 0.9638
0.4299 -1.1124 0.8922
-0.5643 -1.2525 1.0098
0.5267 -1.5468 0.8855
0.3550 -1.4907 1.0004
0.3214 -1.4616 0.8728
-0.5447 -1.3673 0.7524
0.3351 -1.1979 0.9553
0.3945 -1.1668 1.1283
0.3539 -1.3843 0.9024
-0.3452 -0.7025 0.9582
0.5397 -1.4446 0.7863
0.3156 -0.6758 0.9815
0.4899 -1.3261 0.9052
0.0795 -1.3779 0.9090
-0.3736 -0.7580 1.0132
0.3327 -0.7562 1.0900
0.4639 -1.3257 1.1099
0.1328 -1.4218 0.9333
0.4870 -1.3451 0.8842
0.3642 -1.1670 1.0191
0.5136 -1.2680 0.8743
-0.6350 -1.4727 1.1497
-0.3891 -0.7367 1.3630
-0.3507 -0.7773 1.4917
-0.5819 -1.3234 0.9960
-0.2606 -0.8213 1.4090
0.1163 -0.7619 1.1406
-0.1782 -0.7555 1.3893
0.4135 -1.1589 1.0650
0.3638 -1.2000 0.9534
-0.3746 -1.3162 0.8179
0.3209 -1.3909 1.0688
0.2181 -1.4155 1.0343
-0.3411 -0.7150 0.9850
0.6031 -0.7708 1.6679
0.1036 -0.7829 1.4359
-0.2919 -0.7665 1.4663
0.6028 -1.5823 0.8978
0.3273 -1.5015 0.8829
0.2936 -1.5587 0.8824
0.2535 -1.3713 0.8230
-0.0574 -1.4346 1.0508
-0.2066 -1.5553 0.8590
-0.3263 -1.4647 0.8882
-0.5782 -1.2804 1.0293
0.5579 -1.2599 0.9812
0.5242 -1.1993 0.9417
0.6339 -0.8183 2.1558
0.6083 -0.7197 1.5531
0.3251 -0.7243 1.4120
-0.1885 -0.8316 1.4356
0.6237 -1.1714 1.0031
0.6184 -1.4231 0.8572
0.5325 -1.1759 0.9168
0.3825 -0.9929 0.7968
0.4468 -1.2901 0.9103
0.3494 -0.7571 1.0699
0.5419 -1.1904 0.8517
0.3277 -0.7299 1.0548
0.3481 -1.2557 0.9921
-0.6332 -1.5399 1.1192
0.0535 -0.7044 1.3608
-0.7534 -1.5434 1.2805
0.4181 -1.2449 0.9893
-0.3562 -0.7829 1.4969
0.1110 -0.8024 1.3983
-0.1554 -0.8122 1.4601
-0.4003 -0.8274 1.2083
-0.7412 -1.6341 1.1504
0.2976 -1.3473 0.8221
-0.5925 -1.4279 1.0476
0.3866 -1.3930 1.0651
0.4180 -1.3689 1.0471
-0.0202 -0.8331 1.3484
-0.4068 -0.7973 1.4640
-0.3920 -0.7732 1.2364
-0.6708 -1.5307 1.1075
-0.3637 -0.7366 0.9920
-0.3915 -0.7397 1.3711
0.4065 -1.3237 0.9902
0.1245 -0.7949 1.1748
-0.3825 -0.7740 1.2610
-0.3777 -0.7895 1.0574
0.2443 -0.7938 1.1188
-0.1786 -0.8283 1.4236
-0.1482 -0.8168 1.1435
-0.1721 -0.8092 1.2325
-0.1755 -0.7958 1.2033
-0.9111 -0.6018 3.1830
-0.9577 -0.8473 1.9567
-0.6487 -1.4365 1.1191
-0.7929 -1.4881 1.2110
0.3246 -1.3748 1.0639
-0.1574 -0.8049 1.3322
-0.4954 -1.2098 1.0755
-0.7009 -1.2956 0.8812
-0.1941 -0.7700 1.4129
-0.9458 -0.9570 3.2552
0.1172 -0.6220 3.1038
-0.5380 -0.6425 3.1780
-0.8979 -0.5102 3.0786
-0.8700 -0.5783 3.3372
-1.3802 -0.6912 3.0077
-0.0153 -1.5694 0.8535
-0.3369 -1.5071 0.7181
-0.6759 -1.5320 0.7203
-1.0566 -0.8966 1.6636
-1.0265 -0.8538 1.6247
-0.8322 -0.5861 3.3510
-0.4254 -0.8441 1.3094
-0.0022 -0.7922 1.2602
0.1198 -0.7731 1.1520
0.1013 -0.7184 1.3373
-0.1894 -0.8155 1.4784
0.3516 -1.4584 0.9802
0.3059 -1.3897 0.8327
-0.3637 -0.7126 1.1603
0.2975 -1.1999 0.8935
0.3034 -1.2941 1.0127
-0.3496 -1.5495 1.0846
0.3575 -0.8254 1.5134
0.4180 -1.2361 0.8531
0.3956 -1.1792 0.9715
0.4259 -1.2664 1.1721
0.3816 -1.2551 0.9834
0.3957 -1.2812 0.9678
0.4069 -1.3534 0.9766
-0.2811 -0.7801 1.2769
-0.1663 -1.4728 0.8738
0.2672 -0.8259 0.8937
0.3538 -1.2656 0.9967
-0.6633 -1.2701 0.7588
0.4961 -1.2648 0.8104
0.5014 -1.3084 0.7399
0.5332 -1.3826 0.8068
0.4922 -1.3471 0.8872
0.4891 -1.3486 0.7916
0.4646 -1.3059 0.7003
0.4250 -1.1896 1.0008
0.3317 -0.7323 1.4269
0.4459 -1.3816 0.9155
0.4235 -1.2604 1.1978
0.4343 -1.4018 1.1675
0.1780 -1.4853 0.7385
0.1580 -1.4952 0.8634
0.4901 -1.3223 0.9061
-0.3716 -0.7487 1.2363
0.5138 -0.8976 2.9360
0.4249 -0.8820 2.9381
-0.6573 -1.4361 1.0505
-0.5902 -1.4518 1.0742
0.5767 -1.3224 0.8110
0.5007 -1.1061 0.8783
0.5562 -1.4118 0.8960
0.5189 -1.1686 0.9114
0.4861 -1.0881 0.8783
0.5275 -1.1501 0.8282
0.4579 -1.1500 0.9715
-0.8798 -1.0858 3.3399
0.4641 -1.1379 3.4660
0.6447 -0.8405 1.6902
0.5871 -0.7422 1.6260
0.6197 -1.2480 1.0606
0.2676 -1.4394 0.8003
-0.1446 -0.7573 1.3814
-0.0818 -0.7724 1.2999
0.4408 -1.2264 3.5463
0.5009 -1.3738 0.7818
0.3371 -1.3956 0.9516
0.4723 -1.3690 0.7978
-0.3462 -0.7239 0.9950
-1.0771 -1.0503 3.2333
0.7779 -0.9154 3.0218
0.5874 -0.7257 1.5239
0.4369 -0.8606 3.0469
0.1686 -1.3258 0.6450
0.3206 -0.7105 1.0340
0.1801 -0.5041 3.2367
0.3152 -0.7912 1.6589
0.4821 -1.2162 0.7030
-0.3714 -0.7092 0.9873
0.2099 -1.3570 0.9925
0.3924 -1.1569 0.9296
0.4725 -1.0251 0.6932
0.3530 -1.2846 1.0182
0.5014 -1.1407 0.7173
0.4352 -1.2683 0.7398
0.3220 -1.3451 0.9216
0.2524 -1.3743 0.8255
-0.3838 -0.7211 1.3458
-0.3673 -1.3760 0.9904
-0.3197 -0.7078 1.3740
-0.2299 -0.6916 1.3503
-0.2410 -0.7368 1.2839
0.2967 -0.7523 1.5907
0.3773 -1.2106 1.0114
0.3011 -1.3683 0.8238
0.4454 -1.1898 0.8364
0.4100 -1.2311 0.9893
0.4542 -1.2407 0.7108
-0.1608 -0.7392 1.1483
0.6146 -0.7318 1.6616
0.7809 -0.7518 1.8435
0.5963 -1.1014 0.9272
-0.6619 -1.3513 1.1419
-0.1216 -0.7473 1.3097
0.2561 -1.3544 0.7947
-0.7439 -1.3498 1.2098
0.3392 -0.7443 1.0705
0.2439 -0.7478 1.9367
0.4028 -1.2188 1.0042
0.3731 -1.2175 0.9434

