-0.0485 -1.3081 -0.0355
-0.1526 -1.1958 0.6273
-0.1410 -1.3489 0.1767
0.2029 -1.3521 -0.1851
0.6218 -1.2433 0.4269
0.1019 -1.2527 0.7666
-0.2125 -1.3570 0.9411
-0.1582 -1.3208 0.2365
0.1783 -1.2516 0.2437
0.3527 -1.1657 0.7203
0.3221 -1.3679 1.4908
0.2870 -1.2535 0.1890
-0.3352 -1.2946 0.6987
-0.2177 -1.1549 0.8708
-0.1223 -1.2394 0.4357
0.5263 -1.2296 0.2121
0.7570 -1.1233 0.5578
0.4873 -4.7389 2.3817
-0.4847 -1.0714 0.4311
-0.3356 -1.1446 0.6741
-0.1122 -1.2950 1.1717
-0.1288 -1.4092 -0.1803
0.3949 -1.2327 0.1177
-0.0871 -1.4332 1.0628
-0.4612 -1.2783 0.2439
0.2316 -1.3566 0.6724
-0.3743 -1.2168 0.0412
-0.3758 -1.2956 0.2760
0.4244 -1.1564 0.7109
-0.2838 -1.2052 0.3722
0.1208 -1.2416 -0.2381
-0.4295 -1.0900 0.3143
0.5248 -1.2514 0.1321
-0.4702 -1.2390 0.2006
-0.2359 -1.3033 0.8483
-0.3151 -1.3819 0.8337
0.3270 -1.1167 -0.0559
0.8237 -1.3289 0.4721
0.2893 -1.2628 -0.0754
0.3920 -1.2318 0.0919
0.1046 -1.2962 -0.1595
0.0735 -1.3588 -0.0126
0.1992 -1.3631 0.1922
0.2062 -1.2311 0.3270
-0.0442 -1.4771 0.0265
0.0358 -1.3664 0.2489
-0.0723 -1.3123 0.1177
-0.1035 -1.3008 0.0731
0.0663 -1.3378 0.3620
-0.0789 -1.4301 0.2039
-0.0703 -1.2837 0.3310
-0.0072 -1.4012 0.4928
-0.1337 -1.1876 0.2605
0.0374 -1.3096 0.5966
0.0076 -1.3603 0.5993
0.0075 -1.3211 0.6237
-0.0201 -1.2424 0.5707
-0.0781 -1.2822 0.6901
0.3092 -1.2582 1.4675
0.2492 -1.0419 1.2590
-0.1183 -1.3967 1.0567
0.2193 -1.2172 0.2792
0.2314 -1.3909 0.3358
0.7661 -1.1839 0.3964
0.2195 -1.3118 -0.2351
0.2385 -1.2666 -0.1841
0.6027 -1.2198 0.3712
0.3452 -1.1951 0.1372
0.1004 -1.2036 -0.1374
0.0058 -1.4216 -0.1584
0.0938 -1.3962 0.0823
-0.0123 -1.3996 0.2177
-0.1269 -1.4165 0.3909
-0.0481 -1.2917 0.6699
0.2558 -1.2163 1.3891
-0.1480 -1.4423 0.4161
1.6673 -1.9567 0.9415
0.9008 -1.1601 0.5123
0.6474 -1.2996 0.2230
0.7137 -1.1434 1.2615
0.7120 -1.1503 1.3021
0.2959 -1.1999 1.2575
0.2945 -1.4327 1.6219
0.2168 -0.4314 0.7161
0.2420 -1.1839 1.4119
0.1302 -1.1787 1.6991
0.2265 -1.3184 0.3359
1.2592 -1.2379 0.7208
11.6865 -19.0562 10.2343
0.8986 -1.4091 0.4801
0.5088 -1.6146 0.6029
0.3277 -1.3679 1.3267
-0.1187 -1.1401 1.0126
0.1603 -1.1985 1.6324
0.2534 -1.3134 0.4743
1.4796 -1.5846 0.7018
10.9308 -17.4075 8.7580
11.0047 -20.0092 6.6746
12.8755 -17.3617 10.2380
10.7950 -18.3530 5.4487
0.3344 -1.4538 1.5550
2.8785 -3.3753 1.4820
1.1585 -1.4571 0.7368
0.1898 -1.8596 0.8384
0.5597 0.0459 0.2965
-0.4453 -1.2306 0.0115
-0.2788 -1.3258 0.2405
-0.3608 -1.3124 -0.0519
0.0410 -1.3264 -0.2089
-0.4597 -1.1472 -0.0358
0.4393 -1.2821 -0.0067
0.3307 -1.6211 1.9715
0.3506 -1.6122 1.7944
0.3376 -1.4190 0.6521
0.1606 0.0368 0.1906
0.3804 -0.5417 0.4817
0.5501 -0.4066 0.6516
1.1666 -0.6236 1.5061
-0.2364 -0.9706 0.6372
0.0917 -1.3493 0.3976
6.5444 -5.4975 18.9896
16.3440 -8.6410 12.4281
2.3731 -0.9951 1.3522
16.8730 -9.6646 12.9955
1.9222 -0.6235 1.2344
1.4371 -1.5743 0.6289
11.8459 -19.6125 8.2418
12.3652 -18.6010 9.5330
9.3490 -8.4610 7.8043
1.9447 -2.0734 1.1736
1.2432 -1.7234 0.6762
3.6419 -2.4729 2.9006
1.1844 -2.5434 0.4629
14.0009 -10.3102 14.4791
4.6764 -8.1386 3.7062
1.4215 -1.0240 1.3982
5.1792 -5.4909 7.1668
2.3906 -2.0952 2.8308
1.5670 -1.3307 2.1606
1.4693 -1.2503 2.1322
0.5536 -2.8032 1.0836
2.3513 -2.6428 4.1539
0.1699 -0.4295 0.2537
0.4703 -2.2328 2.0333
1.5354 -1.9508 0.6928
1.3560 -1.9451 0.4101
2.3587 -3.1747 1.1717
0.0577 -0.8565 0.4819
0.9041 -0.1332 0.4901
0.8466 -0.0323 0.9268
0.1746 -1.4546 0.3049
-0.1303 -1.3653 1.0389
2.7708 -0.8097 1.5857
2.7259 -0.8957 2.2570
2.7910 -1.0551 2.3125
3.2172 -0.9728 2.9656
0.2875 -16.7513 15.3298
-0.2627 -15.4587 14.5630
0.4114 -2.5351 2.8160
2.7238 -0.7405 1.5644
4.4796 -1.3819 2.9560
2.9477 -0.9284 3.2249
8.9610 -4.9270 17.3337
2.3183 -1.8795 1.9056
13.0249 -13.2277 13.9799
2.6636 -1.9669 2.0566
12.3586 -13.3816 14.7767
2.4234 -1.8843 1.4360
3.6777 -3.0166 3.3546
0.2953 -0.3688 0.1612
0.8654 0.0567 0.6099
2.9495 -1.1539 3.3393
3.1411 -1.2589 5.0251
2.2150 -1.0337 4.5590
2.0766 -1.6867 5.5969
1.9771 -1.5205 6.9670
1.8025 -1.1835 3.7366
1.3912 -1.0042 3.9760
3.7789 -2.0724 2.1742
0.4037 -3.3113 3.1297
4.0236 -2.9596 4.0689
3.2817 -2.8121 3.4131
3.1624 -2.4916 3.3527
5.3013 -5.5709 6.9058
14.4299 -12.3983 13.5297
2.7812 -2.8782 3.6608
6.2344 -6.9480 10.0333
9.2462 -12.1193 16.3519
8.4797 -12.0252 16.0831
2.1843 -1.6818 3.2273
2.2241 -2.4515 3.5943
2.6231 -2.7905 4.6229
6.9566 -12.2499 16.7519
3.6559 -10.8933 17.5277
2.3413 -2.9204 4.4375
7.5886 -11.4555 18.7401
1.7865 -2.2339 3.1895
1.7165 -2.3067 4.4182
2.5085 -1.6721 2.0387
5.1744 -10.2698 18.6312
6.0026 -9.8524 16.7672
5.5886 -11.3698 16.9169
2.1116 -3.2588 5.1609
1.5236 -2.3063 3.4104
1.4829 -2.5934 3.5180
2.5069 -1.7704 2.2540
2.4538 -1.8261 2.3140
2.0432 -4.2129 6.6199
6.0234 -12.0577 17.0984
1.5849 -2.1065 2.8356
3.1060 -2.2794 2.7343
0.2880 -3.6006 2.6629
3.6277 -1.4310 2.0782
3.6345 -0.9399 2.2178
-0.1076 -1.8496 0.9048
7.6726 -2.8424 7.8126
0.4367 -2.6284 3.5186
3.5405 -1.1657 3.2007
8.4117 -3.2005 17.8914
11.8392 -3.5092 15.7981
2.3367 -3.1283 0.8354
4.2229 -0.7570 2.8897
2.2764 -2.8822 1.2422
3.9548 -3.0633 4.1764
2.8057 -2.4695 2.7837
4.1960 -8.8191 3.7383
3.3352 -2.0893 2.5729
3.0878 -3.0663 4.1923
1.8673 -2.4079 3.5668
2.1553 -2.6699 3.4847
2.8339 -2.2036 2.1114
10.2877 -13.1379 15.9640
2.7941 -3.6156 0.9223
11.6263 -2.6832 9.4866
1.4583 -0.6517 2.8047
12.1209 -2.7602 16.5621
0.7854 -0.5270 1.3763
0.3440 0.0046 0.0696
0.4295 0.1003 0.1784
0.3195 0.1352 0.0771
5.7885 -2.3430 16.3872
3.9843 -1.1718 2.7287
2.3495 -1.6834 5.3823
5.9826 -4.5263 18.4204
2.1784 -1.5127 4.6627
2.8318 -4.9856 9.2494
2.3653 -1.5933 5.2644
1.6267 -1.0551 5.3822
4.2030 -0.8764 2.6446
0.2527 0.0387 0.0461
8.9142 -12.0642 17.8670
8.6980 -12.5857 17.6207
2.4436 -3.3130 1.2475
2.2073 -2.5235 3.9577
2.6498 -4.9795 7.8795
13.6232 -13.1174 14.0017
0.2439 -1.1801 0.7174
1.8508 -1.6849 1.5795
1.5354 -0.0924 0.8786
0.4052 -0.8949 0.2780
0.3069 -0.0081 0.0675
0.4770 -0.1894 0.5328
1.7285 -1.3093 5.6001
1.9763 -0.8459 6.2902
5.2331 -5.7086 2.3965
2.6270 -4.9737 1.8136
2.9858 -2.8502 2.9039
1.2419 -0.1506 2.4196
7.9039 -12.2859 16.2527
3.2822 -4.2681 5.9249
1.1415 -0.0948 2.1139
1.0744 -1.9315 1.0053
0.3540 -0.1899 0.2691
2.4675 -1.2807 2.8371
13.3942 -17.8258 8.0339
5.6183 -2.6728 8.8147
9.3314 -3.3993 7.8005
3.8708 -3.7689 5.5383
8.0057 -7.0488 6.6959
4.0919 -4.2815 4.8500
3.6459 -0.6821 6.4925
1.3682 -0.9482 3.9818
7.6246 -1.7582 9.5387
6.3693 -1.2929 6.3802
12.5560 -2.8046 14.2466
5.7610 -2.0290 16.4971
14.4770 -2.5232 11.1752
2.6195 -2.9170 5.4809
3.5804 -4.0732 4.4426
1.1982 -0.1673 2.7629
0.6087 -0.0529 0.3033
0.2449 0.1297 0.1235
3.6652 -2.8370 2.9951
5.7645 -4.6565 4.7011
5.8643 -4.0869 5.1953
5.4284 -7.9402 4.4796
5.6690 -5.1859 5.7866
13.8110 -11.1912 14.2899
13.4614 -11.5627 15.3435
0.6224 -0.3691 0.6918
8.0818 -3.1868 7.7898
12.5967 -2.5574 14.2793
6.9128 -1.9793 16.2620
2.5035 -2.6458 1.7410
12.6717 -2.5517 12.5231
12.6699 -2.5776 15.0473
4.7000 -1.4735 14.4546
1.7064 -2.6608 1.0607
0.5351 -0.0112 0.0252
0.4583 0.1456 0.1687
9.8686 -2.3263 16.4907
2.7608 -5.6347 9.7498
12.9340 -2.3568 14.2232
11.3649 -1.8371 7.4122
12.5086 -2.7454 8.7381
5.8233 -9.7700 14.0271
8.5528 -10.3447 17.8242
5.3198 -10.2612 17.9836
10.6663 -4.7766 6.5191
7.9085 -10.3677 5.0432
2.5889 -3.0862 0.5416
5.1642 -5.1046 5.3904
1.0631 -0.2302 0.2826
0.8201 -0.1113 0.2175
4.9654 -3.1813 5.6694
0.9854 -0.1362 0.3432
9.1439 -11.4260 17.2197
11.6692 -19.7505 6.3018
7.7428 -9.2755 10.5531
2.2579 -16.9018 13.5653
8.0705 -11.4779 3.7027
11.6273 -5.9614 7.9940
0.7349 -0.0615 0.0620
1.0981 0.0678 0.7824
14.9777 -2.1349 11.2326
14.9050 -2.1617 11.5937
14.5818 -2.3833 11.5206
5.7716 -1.5713 17.3788
11.2250 -12.2106 14.2845
4.2174 -9.9833 16.1512
10.0290 -14.2040 6.8041
0.7222 -0.8341 0.6571
2.2624 -0.5387 1.9893
0.7317 -2.4648 2.0377
1.8884 -1.6136 1.9523
0.1251 0.2594 0.1554
14.5582 -11.7410 14.2694
15.2781 -6.5247 17.3777
0.9301 -0.4831 0.1451
0.1156 0.2821 0.1436
1.0403 0.1113 0.3416
12.4643 -11.2268 14.7789
7.0728 -22.0154 8.1857
8.1101 -17.3331 7.2043
0.1458 0.2753 0.1629
1.3119 -0.1202 -0.1202
12.1374 -17.9280 9.5339
0.1416 0.2455 0.1897
2.4770 -5.2681 2.3481
0.1252 0.2668 0.1462
0.1303 0.2744 0.1421
0.1195 0.2499 0.1614
0.1307 0.2256 0.2114
0.2006 0.1057 0.3664
0.1449 0.2650 0.1482
0.1309 0.2582 0.1481
0.1215 0.2818 0.1577
0.1621 0.1831 0.1625
0.1448 0.2540 0.1506
0.1778 0.2133 0.2153
0.1401 0.2733 0.1452
0.2042 0.2367 0.2160
0.1753 0.2025 0.1805
0.1827 -0.3500 0.4560
0.9852 -0.3974 0.9106
1.0808 -0.9018 0.7349
0.6324 -0.4579 1.2542
1.1008 -0.4740 1.0683
0.3836 -0.4694 1.2551
0.3507 -0.4502 1.1590
0.1064 -1.1057 1.5756
0.9972 -0.4470 0.8996
1.1820 -0.5177 1.1825
0.8383 -0.4333 1.0943
0.9695 -0.7905 0.6526
0.9657 -0.9086 0.7402
0.3147 -0.3649 1.9228
1.0108 -0.9621 0.6458
1.0242 -1.0614 0.6832
0.7772 -0.3782 0.9639
0.9852 -0.9869 0.8166
1.1427 -1.2741 0.6123
1.0222 -0.9399 0.7658
1.0300 -1.2397 0.7638
0.9116 -0.4319 1.0793
0.7288 -0.4830 0.9901
0.7608 -0.4638 1.1330
0.7008 -0.4587 1.1572
0.6787 -0.4728 1.1122
0.6743 -0.4669 1.2452
0.6150 -0.4628 1.2889
0.5725 -0.4595 1.2747
0.4590 -0.4599 1.1510
0.5043 -0.4614 1.3605
0.4879 -0.4557 1.3984
0.3962 -0.4669 1.1858
1.0888 -1.2898 0.6370
1.2288 -1.0771 0.7232
0.7269 -0.4624 1.2108
0.6647 -0.4597 1.3212
0.4832 -0.5544 1.4611
0.7769 -0.4760 0.9433
0.7030 -0.4562 1.3109
0.5570 -0.4502 1.6129
0.0823 -1.5099 1.6883
0.5212 -0.4738 1.3342
0.3414 0.1453 0.5444
1.0336 -0.9511 0.7809
1.2725 -0.4976 1.3811
0.6296 -0.4760 1.0855
0.5370 -0.4483 1.4963
0.8888 -1.1614 0.9142
0.3480 -0.4428 1.1298
1.0926 -0.8928 0.6449
0.7850 -0.4479 1.1142
0.7299 -0.4728 1.0673
0.7310 -0.5571 1.1457
0.7678 -0.4976 1.5552
0.5072 -0.4509 1.4352
1.1490 -1.0506 0.7202
1.0107 -1.1275 0.8856
0.7036 -0.4712 1.1612
1.2184 -0.5128 1.2636
0.4674 -0.4341 1.3979
1.0266 -0.4821 0.9184
0.1827 -1.1627 1.3337
0.6810 -0.4821 1.1103
0.6586 -0.4937 1.4024
0.5152 -0.4514 1.2907
1.0219 -0.9818 0.7305
0.9934 -1.1092 0.8937
1.4607 -0.4256 1.1970
1.5399 -0.5006 1.2562
1.0565 -1.0023 0.7850
1.0890 -0.4757 1.1159
0.9467 -1.1250 0.7761
0.5683 -0.4454 1.5638
0.4012 -0.4943 1.3699
1.0142 -0.9707 0.6383
1.1190 -0.3595 1.1583
0.7743 -0.4913 1.1522
0.6884 -0.4589 1.5261
0.5404 -0.4621 1.3615
0.4418 -0.4715 1.2065
0.9725 -0.4707 0.8533
1.0476 -0.4711 0.9656
1.0709 -0.4677 1.0124
1.0707 -0.5570 1.0320
1.0221 -0.4987 1.1082
0.9475 -0.5859 1.0640
0.9287 -0.5210 1.0622
0.8100 -0.5293 0.9660
0.7502 -0.5295 1.0236
0.6450 -0.4654 1.1854
0.6467 -0.5012 1.2930
0.5480 -0.4780 1.0574
0.6444 -0.4979 1.4538
0.5125 -0.5363 1.1467
0.4828 -0.4597 1.3856
0.4103 -0.4666 1.2994
0.3947 -0.5752 1.3870
1.3715 -0.4822 1.0565
1.1397 -0.5058 1.3399
0.6248 -0.4594 1.7044
0.8323 -0.5059 1.6037
1.0352 -0.9595 0.5226
1.1663 -1.0821 0.8160
1.0254 -0.5414 0.9594
1.0616 -0.4767 1.0533
0.8443 -0.5450 0.9729
0.8010 -0.4895 1.3712
0.7345 -0.4977 1.3057
0.5825 -0.4663 1.1998
0.5976 -0.4929 1.4297
0.4214 -1.2757 1.2524
0.4405 -0.4598 1.3714
0.9927 -0.8443 0.6609
1.0823 -1.0733 0.5118
1.1331 -0.8269 0.6741
1.0028 -0.9892 0.6211
1.0278 -0.9905 0.7356
1.0135 -0.4614 1.1251
0.9790 -0.4660 1.1151
1.0217 -0.4785 1.1930
0.8710 -0.4911 1.1454
0.8284 -0.4857 1.2752
0.7639 -0.5000 1.2096
0.7715 -0.4872 1.3074
0.7129 -0.4847 1.3352
0.5665 -0.4709 1.1017
0.6071 -0.4793 1.3617
0.5144 -0.4746 1.1348
0.5654 -0.4862 1.3561
0.2668 -1.2382 0.7838
0.5059 -0.4775 1.1858
0.4651 -0.5159 1.1211
0.4990 -0.5144 1.2823
0.4989 -0.4652 1.3496
1.0345 -1.1882 0.6058
0.9880 -1.0011 0.8092
2.3694 -0.5967 2.3753
1.5774 -0.4644 1.2805
1.1361 -0.9712 0.9406
0.8943 -0.4686 1.2840
0.8691 -0.5027 1.3608
0.7961 -0.4618 1.2829
0.8049 -0.4599 1.5442
0.7201 -0.4526 1.3435
0.7238 -0.5249 1.4685
0.7113 -0.4480 1.5649
0.6714 -0.4865 1.5033
0.6539 -0.4839 1.5506
0.6812 -0.4599 1.6759
0.6502 -0.4469 1.5967
0.5813 -0.5004 1.4920
0.5251 -0.4606 1.4049
0.5439 -0.5021 1.6483
0.1197 -1.1427 1.6089
0.1770 -1.0896 1.3733
0.0910 -1.2880 1.4952
0.9631 -0.4822 0.9492
0.9124 -0.4855 0.9833
0.8690 -0.4823 0.9657
0.7351 -0.4765 0.9370
0.6598 -0.4745 1.1457
0.8621 -0.4676 0.9042
0.9244 -0.5517 3.2233
1.9895 -0.7577 2.7048
2.1087 -0.5920 2.4588
2.6162 -0.5984 2.4377
0.5428 -0.4853 3.2133
1.5045 -0.5610 2.9510
1.7847 -0.2832 2.6993
1.1556 -0.2351 2.7703
2.5535 -0.3117 2.4884
1.1196 -0.8662 0.6132
1.0303 -0.5055 0.9821
0.9235 -0.4697 1.1501
0.7861 -0.4727 1.0380
0.7451 -0.4752 1.0251
0.8811 -0.4666 1.3236
0.7902 -0.4734 1.1986
0.7033 -0.4519 1.0827
0.6746 -0.4548 1.0270
0.6829 -0.4631 1.1909
0.6669 -0.4761 1.3262
0.5625 -0.4866 1.1670
0.5459 -0.4803 1.2068
0.4716 -0.4764 1.2750
0.4262 -0.4632 1.2411
0.1267 -1.1732 1.3729
1.0244 -0.8742 0.5200
1.3280 -0.4357 1.0114
1.4929 -0.6512 3.2872
1.0097 -0.1819 3.0505
0.9004 -0.3079 3.1922
1.1791 -0.4469 1.2420
1.2453 -0.4579 1.3741
0.9545 -0.4884 0.8658
0.7709 -0.4702 1.0798
0.8835 -1.1671 0.7091
0.9777 -0.4624 0.9837
0.8508 -0.4915 1.0697
0.4584 -0.4762 1.3367
0.8934 -0.4758 1.0157
0.5943 -0.4619 1.1515
0.9318 -0.4718 1.0250
0.4269 -1.1769 0.9270
0.4149 -0.4935 1.1550
2.5623 -0.2486 2.4080
1.1136 -0.4180 1.7111
1.1258 -0.4666 1.1207
1.1513 -0.4561 1.1878
0.4746 -0.4804 1.4666
0.7542 -0.4755 0.9739
2.2421 -0.4329 2.1726
1.8793 -0.4954 2.2918
1.0635 -0.4386 1.4245
0.9757 -1.1931 0.5575
1.0956 -0.8917 0.6636
0.9834 -0.4860 1.1881
1.1221 -0.9316 0.6799

