0.0045 -0.0157 0.0071
-0.0013 -0.0284 0.0055
-0.0052 -0.0339 0.0185
-0.0009 -0.0273 0.0037
-0.0083 -0.0451 0.0193
0.0012 -0.0361 0.0199
-0.0426 -0.7291 0.2256
-0.2535 -0.6937 0.0631
-0.0816 -0.7687 0.1361
0.0332 -0.7573 0.2339
-0.1272 -0.6713 0.2044
-0.1758 -0.7943 0.3134
-0.3360 -0.7361 0.0860
-0.1579 -0.6222 0.4591
-0.1167 -0.7512 0.4990
0.1041 -0.8003 0.2194
-0.1688 -0.6537 -0.0055
-0.0095 -0.7280 0.1170
-0.0729 -0.7225 0.2014
0.1604 -0.7636 0.0680
-0.1360 -0.6096 -0.0027
-0.1345 -0.6670 0.2720
0.0325 -0.6673 0.4538
-0.0157 -0.7044 0.2464
-0.1711 -0.6764 0.4127
0.0459 -0.7994 0.1113
-0.0264 -0.8324 0.2306
-0.0643 -0.1616 0.0060
-0.3136 -0.6644 0.1070
-0.1414 -0.6638 0.4031
-0.1464 -0.6908 -0.0116
-0.0226 -0.7721 0.2430
-0.0888 -0.7999 0.4299
-0.1987 -0.6877 0.1784
0.0502 -0.8596 0.0943
0.0458 -0.7924 0.3203
-0.3576 -0.7525 0.0776
0.0389 -0.7231 0.3218
0.0175 -0.6623 0.1696
-0.3003 -0.6840 -0.0064
-0.3281 -0.7885 0.1046
-0.1560 -0.7411 0.3738
-0.0879 -0.7490 0.2018
0.0218 -0.7693 0.3683
-0.0154 -0.7442 0.0043
-0.0968 -0.6539 0.2278
-0.2958 -0.6980 0.1629
0.0170 -0.8012 0.1195
-0.2867 -0.6784 0.4305
-0.0701 -0.6070 0.2311
-0.2781 -0.6448 0.3815
-0.3142 -0.6858 0.2282
-0.1043 -0.7537 0.3525
-0.2888 -0.7489 0.5514
-0.0794 -0.7208 0.2595
-0.0961 -0.7513 0.1679
-0.0858 -0.9469 0.4803
-0.1808 -0.7074 0.5311
-0.3276 -0.6911 0.3580
-0.4280 -0.6569 0.5300
-0.3361 -0.7492 -0.0114
-0.1812 -0.4218 -0.0017
-0.0109 -0.6910 0.0827
-0.0009 -0.6832 0.1437
-0.0659 -0.7393 0.2312
-0.2791 -0.7896 0.4038
-0.3906 -0.7267 0.0442
0.0210 -0.7412 0.4810
-0.3781 -0.7543 0.0029
0.0243 -0.7462 0.2040
-0.2557 -0.6343 0.1952
0.0084 -0.4689 0.0334
-0.4617 -0.7709 0.4917
0.0066 -0.7299 0.1076
0.0049 -0.7843 0.0469
-0.4196 -0.6832 0.5010
-0.3682 -0.7870 0.0525
-0.0406 -0.6923 0.3760
-0.0442 -0.8126 0.6926
-0.0305 -0.7075 0.0429
-0.0803 -0.5979 0.4128
-0.0858 -0.8078 0.3559
-0.1124 -0.8023 0.2292
-0.3022 -0.6982 0.2441
-0.3217 -0.7159 0.2773
-0.3128 -0.7466 0.1390
-0.4333 -0.6725 0.4702
-0.0179 -0.7426 0.2757
-0.0635 -0.8169 0.3240
-0.0580 -0.7234 0.2367
-0.0835 -0.6393 0.3317
-0.0968 -0.6722 0.3788
-0.1842 -0.7087 0.4251
-0.1812 -0.6673 0.3187
-0.2010 -0.6671 0.2383
-0.4054 -0.8123 0.5825
-0.2902 -0.6669 0.1686
-0.3775 -0.7469 0.3593
-0.3503 -0.7640 0.1773
-0.4234 -0.7066 0.1981
-0.3735 -0.6202 0.0523
-0.5098 -0.8208 0.1425
-0.5032 -0.8453 0.0834
-0.4973 -0.7953 0.0662
-0.4971 -0.7978 -0.0132
-0.0714 -0.7352 0.5502
-0.1468 -0.6750 0.3874
-0.1890 -0.6859 0.4360
-0.4094 -0.7454 0.0985
-0.4610 -0.7764 0.0075
-0.0740 -0.7636 0.1324
-0.0812 -0.6815 0.0921
-0.1212 -0.6925 0.2740
-0.1503 -0.6216 0.2772
-0.1664 -0.6820 0.2288
-0.2494 -0.5756 0.3592
-0.2425 -0.7422 0.0754
-0.2510 -0.7062 0.0961
-0.3413 -0.6423 0.4481
-0.2805 -0.6533 0.0555
-0.1811 -0.6638 0.3846
-0.2666 -0.7597 0.1739
-0.0831 -0.7214 0.3468
-0.2839 -0.6866 0.3302
-0.0945 -0.1277 0.1237
-0.1241 -0.1397 0.0551
0.0236 -0.0947 0.0763
-0.3391 -0.7831 0.2857
-0.0812 -0.1205 0.0090
-0.1092 -0.0539 0.0544
-0.1660 -0.6888 0.1246
-0.3461 -0.7872 0.2372
-0.0426 -0.6708 0.1977
-0.4233 -0.8153 0.0730
-0.0708 -0.6675 0.1796
-0.2935 -0.6855 0.1632
-0.0497 -0.6789 0.2697
-0.0952 -0.6912 0.3121
-0.2244 -0.6756 0.0610
-0.3249 -0.7789 0.1525
0.0028 -0.6767 0.0924
-0.1866 -0.6562 0.3251
-0.0938 -0.6792 0.2344
-0.3091 -0.5216 0.0884
-0.2874 -0.6813 0.0026
-0.0879 -0.6747 0.5838
-0.0007 -0.7618 0.2377
0.0039 -0.6823 0.1096
-0.0775 -0.6424 0.4310
-0.0553 -0.6700 0.2099
-0.2845 -0.7321 0.2338
-0.3378 -0.7049 0.0645
-0.0336 -0.6858 0.3877
0.0556 -0.7633 0.1436
0.0216 -0.5604 0.0223
-0.0008 -0.6797 0.1788
-0.0111 -0.6629 0.0992
-0.0217 -0.7031 0.1839
-0.0168 -0.8871 0.1890
-0.0667 -0.6714 0.2433
-0.1453 -0.6680 0.3244
-0.1708 -0.6946 0.2559
-0.1637 -0.6829 0.1156
-0.2007 -0.7117 0.2421
-0.2230 -0.7210 0.3038
-0.2199 -0.6903 0.0395
-0.3132 -0.6065 0.4210
-0.2968 -0.6427 0.1726
-0.0032 -0.6915 0.1453
-0.0144 -0.6643 -0.0055
-0.0471 -0.6410 -0.0052
-0.0958 -0.6878 0.1116
-0.1363 -0.6098 0.2591
-0.1660 -0.5842 0.3606
-0.1813 -0.6757 0.3788
-0.2615 -0.6815 0.3024
-0.2875 -0.6556 0.0336
-0.1551 -0.6696 0.5317
-0.1060 -0.0329 0.0411
0.1288 -0.6324 0.3578
0.1012 -0.6002 0.1117
0.0348 -0.6031 0.4246
0.0254 -0.5782 0.3800
0.0397 -0.6670 0.2032
-0.0687 -0.4798 0.1886
-0.1197 -0.5824 0.2313
-0.1447 -0.7165 0.3203
-0.1462 -0.6636 0.2512
-0.1628 -0.6704 0.2156
-0.2347 -0.6671 0.0806
-0.2592 -0.6060 0.1342
0.1254 -0.6416 0.0605
0.0811 -0.6532 0.1049
0.0585 -0.6943 0.1576
0.0114 -0.6719 0.0962
-0.0407 -0.6218 0.1559
-0.1062 -0.6534 0.4191
-0.0991 -0.6349 0.2744
0.1282 -0.6989 0.3112
0.1123 -0.7351 0.2123
0.1291 -0.6765 0.2672
-0.0877 -0.0547 0.0108
0.2208 -0.6360 0.1875
0.2239 -0.6554 0.0742
0.1960 -0.6014 -0.0016
0.1869 -0.5862 0.0376
0.1935 -0.6131 -0.0126
0.2001 -0.6293 0.0630
0.2044 -0.6555 0.0521
0.1190 -0.6033 0.2281
0.2013 -0.6469 0.2558
0.1791 -0.6106 0.0000
-0.0404 -0.6196 0.1803
0.1883 -0.6596 0.2364
0.1795 -0.6425 0.2579
0.1749 -0.6457 0.0837
0.1663 -0.6268 0.1392
0.1665 -0.6402 0.2459
0.1400 -0.6624 0.0414
0.1142 -0.6403 0.1690
0.1165 -0.6667 0.3217
0.1021 -0.6269 0.3310
0.1087 -0.6353 -0.0139
0.0899 -0.6344 0.2641
0.0806 -0.6310 -0.0091
0.0726 -0.6238 0.1130
0.0473 -0.7424 0.0988
0.0257 -0.6415 0.1880
0.0352 -0.6622 0.0648
0.0023 -0.6842 0.1344
-0.0310 -0.6393 0.3834
-0.0213 -0.6645 0.1978
-0.0107 -0.6587 0.0703
-0.0745 -0.6467 0.3238
-0.0807 -0.6335 0.3299
-0.0812 -0.6381 0.1658
-0.1426 -0.6738 0.1853
-0.1617 -0.6779 0.0967
-0.1439 -0.6469 -0.0149
-0.1017 -0.6732 0.1750
0.1230 -0.6467 0.1973
-0.0583 -0.6520 0.2759
0.1649 -0.6639 0.2204
0.2269 -0.6555 0.4436
0.2183 -0.6460 0.3614
0.2216 -0.6663 0.2722
0.0281 -0.7022 0.2788
-0.3060 -0.6637 0.0701
-0.1924 -0.6716 0.2485
-0.2379 -0.6898 0.2289
0.2357 -0.6303 0.4743
-0.0611 -0.6888 0.4870
-0.3433 -0.7083 0.1630
-0.3221 -0.7001 0.1028
-0.2037 -0.6600 0.3982
0.1616 -0.6495 0.4987
-0.0053 -0.6737 0.0254
-0.0142 -0.6672 0.3249
-0.1928 -0.7341 0.4397
0.0049 -0.5789 0.1044
0.0711 -0.6433 0.1247
0.0300 -0.6529 0.3950
0.1132 -0.6593 0.0801

