-0.0006 0.0344 0.3337
-0.0172 0.0886 0.2045
0.0090 -0.0358 0.3403
-0.0045 0.0762 0.2415
0.0603 -0.2728 0.6555
-0.1033 0.2459 0.1783
-0.1337 0.2919 0.1879
-0.0994 0.0057 0.2203
-0.0819 0.0159 0.4326
-0.1511 0.2949 0.2268
-0.0516 -0.0219 0.3676
0.0354 0.0085 0.1559
-0.0151 0.0045 0.2546
-0.0395 0.0005 0.3131
-0.1894 0.0192 0.2275
-0.0263 -0.0077 0.4355
-0.0027 0.0036 0.3017
-0.0227 0.0019 0.3481
0.0130 0.0226 0.1723
-0.0001 -0.0071 0.2974
-0.1952 0.3852 0.1616
-0.0209 0.0002 0.2828
-0.0216 0.0244 0.4203
-0.0059 -0.0060 0.4023
0.0237 0.0260 0.2796
0.0741 0.0913 0.1928
-0.0665 0.0002 0.3405
-0.0728 0.0270 0.4617
-0.0571 0.0246 0.5025
-0.1347 0.0473 0.4354
-0.0833 0.0875 0.4224
-0.0149 -0.0185 0.5587
-0.1702 0.3601 0.1756
0.0276 0.0451 0.1617
0.0209 0.0507 0.1753
-0.0290 0.0432 0.2166
0.0491 0.0588 0.2277
0.0325 0.0948 0.5532
-0.1116 0.0483 0.3713
0.0122 0.0849 0.5961
-0.0249 0.0646 0.5704
-0.0892 0.0574 0.3329
-0.0492 -0.0050 0.3464
-0.0468 0.1283 0.4577
0.3229 -0.0645 0.3954
0.0226 0.0550 0.4892
-0.0435 0.0468 0.2407
0.2215 -0.0766 0.2443
0.0873 0.0627 0.2465
0.0868 -0.0321 0.2665
0.0331 0.0503 0.2781
0.0064 0.0555 0.3256
0.1770 -0.1510 0.4854
-0.0169 0.0299 0.3522
0.1438 -0.0308 0.5994
-0.1680 0.0437 0.5013
-0.0603 0.0562 0.2618
-0.1600 0.0629 0.4691
-0.0746 0.0602 0.4112
-0.1054 0.0516 0.4721
-0.0200 0.0777 0.5968
-0.1160 0.0510 0.5177
-0.0294 -0.0023 0.6912
0.3596 -0.0646 0.3248
0.2576 -0.0048 0.5325
0.1982 -0.0055 0.5411
0.0658 -0.0379 0.1749
0.2774 -0.0053 0.4448
0.2243 0.0193 0.4812
0.2103 -0.0047 0.5088
0.0483 0.0189 0.6555
0.2494 -0.0763 0.2353
0.2944 -0.1153 0.2621
0.1148 -0.0227 0.4882
0.0679 -0.0200 0.1545
0.3529 -0.0516 0.3716
0.2820 -0.0677 0.4134
0.1062 -0.0223 0.3513
0.0556 -0.0154 0.4865
0.1448 0.0254 0.3970
0.0102 -0.0023 0.2313
-0.0300 0.0211 0.2780
-0.0167 0.0226 0.4228
0.1114 0.0246 0.5672
0.0631 0.0252 0.5434
-0.0188 -0.0308 0.5278
0.1073 0.0050 0.6399
0.0476 0.0136 0.6090
-0.0114 0.0187 0.5557
-0.0656 -0.0500 0.6630
-0.1304 -0.0085 0.6426
-0.1626 -0.0773 0.6689
-0.2210 0.2559 0.2883
-0.0488 -0.0177 0.5232
-0.1670 0.0233 0.5784
-0.3513 -0.1064 0.9409
-1.0112 -0.6876 0.9646
-0.3687 0.0184 0.8351
-0.5709 -0.0203 0.7095
-0.7050 -0.6618 0.1733
-0.8051 -0.6353 0.3178
-0.8498 -0.6704 0.7676
-1.0373 -0.6679 0.6784
-0.7405 -0.6731 0.0774
-0.0949 -0.0099 0.5876
0.2682 -0.0445 0.4439
-0.3178 -0.6545 -0.1121
-0.5554 -0.8176 -0.1669
-0.5537 -0.5813 -0.1264
-0.3997 -0.5360 -0.0661
-0.2601 -0.6249 -0.0096
-0.4162 -0.6315 0.0270
-0.7507 -0.6616 0.0742
-0.5613 -0.6815 0.2047
-0.6406 -0.6206 0.1696
-0.4700 -0.6079 0.3744
-0.4131 -0.5838 0.5489
-0.9340 -0.6349 0.5016
-0.8806 -0.6035 0.5403
-0.9672 -0.6482 0.6701
-0.8605 -0.7320 0.5864
0.0035 0.0280 0.1643
-0.0061 0.0095 0.3676
-0.8778 -0.6859 0.1225
-0.4762 -0.6969 0.5926
-0.9955 -0.6922 0.7515
-0.1042 0.0179 0.6052
-0.6923 -0.6240 -0.2520
-0.2556 -0.5432 0.0676
-0.0190 -0.0062 0.2886
-0.6584 -0.3803 0.2968
0.0245 0.0003 0.3147
0.0348 0.0066 0.4732
0.1061 -0.0413 0.5507
0.0539 0.0116 0.5396
0.0399 -0.0199 0.4311
-0.7771 -0.8121 0.5444
0.1063 -0.7529 -0.1796
-0.6329 -0.5414 -0.2492
-0.4490 -0.7649 -0.2241
-0.6164 -0.7442 -0.2182
-0.6538 -0.7805 -0.2005
-0.7221 -0.7249 -0.1487
0.1197 -0.0574 0.2890
-0.4878 -0.8062 0.3426
-0.0945 0.0328 0.3219
0.0378 -0.0341 0.3962
-0.6774 -0.7089 0.4663
-0.1896 -0.7348 -0.2598
0.1799 0.0037 0.2949
0.1802 0.0105 0.4663
-0.0081 0.0091 0.4838
-0.0488 0.0525 0.4827
-0.2042 -0.7740 -0.0702
0.2711 -0.0293 0.2618
0.0196 -0.0217 0.2427
0.2661 -0.0230 0.3329
0.2332 -0.0187 0.3916
0.1017 -0.0159 0.3525
0.2244 -0.0054 0.4253
0.0403 -0.0005 0.3574
0.1206 -0.0199 0.3966
0.1786 0.0008 0.4318
0.2029 0.0230 0.4411
0.0953 -0.0313 0.4245
0.1198 0.0271 0.4675
0.1963 0.0131 0.5060
0.0945 0.0913 0.5021
0.0957 0.0604 0.5439
0.1251 -0.6888 -0.2506
0.1746 -0.0305 0.2393
0.0354 -0.0470 0.2132
0.2392 -0.0190 0.2776
-0.9157 -0.6876 0.4599
-0.0694 -0.0149 -0.2185
-0.1489 -0.7353 -0.3877
-0.1247 0.1496 -0.1632
0.0835 0.0056 -0.1739
-0.2037 -0.7856 -0.2517
-0.7147 -0.6071 -0.2004
-0.7313 -0.7463 -0.1625
-0.7552 -0.7711 0.1146
-0.0591 0.0065 -0.2022
0.2053 0.0033 -0.1827
0.0389 -0.0143 -0.1676
0.0892 -0.5542 -0.1732
0.1283 -0.7044 -0.1991
-0.0608 -0.0116 -0.2774
0.1028 0.0048 -0.2285
0.5110 -0.2705 -0.2646
-0.0946 -0.8136 -0.4131
-0.5640 -0.7195 -0.3566
-0.4583 -0.5226 -0.2893
0.1059 -0.6617 -0.2184
-0.4325 -0.7755 -0.2368
-0.2562 0.0303 -0.0506
-0.2166 -0.8058 -0.0138
-0.2433 -0.6916 -0.0090
-0.7966 -0.6463 -0.0854
-0.5611 -0.7268 0.0429
-0.6310 -0.7571 0.1452
-0.7114 -0.6970 0.1235
-0.6274 -0.7488 0.1683
-0.7859 -0.7013 0.1875
-0.6868 -0.5714 0.2362
-0.4676 -0.6664 0.3943
-0.7423 -0.7042 0.3841
0.4448 -0.7045 -0.4797
0.0950 0.0026 -0.1885
-0.0870 -0.0249 -0.2189
0.3063 -0.7779 -0.4674
0.0281 -0.0258 -0.2585
-0.6509 -0.8395 -0.2649
-0.5156 -0.7442 0.1520
-0.4176 -0.7037 0.5221
0.0235 0.0108 -0.3599
0.4671 -0.8289 -0.5224
-0.0147 0.0019 -0.1754
-0.0085 -0.0218 -0.2232
-0.3904 -0.7020 -0.4492
0.0041 0.0142 -0.1938
0.4047 -0.6391 -0.4145
0.2906 -0.7825 -0.6111
-0.6772 -0.6502 -0.2772
0.0904 -0.7739 -0.1233
-0.2944 -0.7543 -0.1145
-0.1524 -0.6607 -0.4662
-0.0488 -0.0079 -0.3392
-0.0714 -0.7962 0.1087
-0.3963 -0.7183 0.0286
-0.4005 -0.5203 -0.4942
-0.8233 -0.8132 -0.0343
-0.3141 -0.6766 0.1489
-0.1191 0.0368 -0.2893
0.0118 -0.0156 -0.3068
0.0283 -0.0039 -0.2964
-0.7617 -0.7444 0.2518
-0.8829 -0.7050 0.2869
-0.7389 -0.7459 0.2525
-0.0348 -0.0076 -0.2539
-0.7751 -0.7541 -0.2181
-0.7187 -0.7529 0.3879
-0.7052 -0.4634 -0.5414
-0.0039 0.0163 -0.2121
-0.7514 -0.7749 -0.2607
-0.6906 -0.5234 -0.1149
-0.5932 -0.5416 -0.5752
-0.4210 -0.5541 -0.5131
-0.6519 -0.4203 -0.2073
0.1519 -0.2937 -0.5207
-0.3018 -0.4721 -0.5503
0.1320 -0.0447 -0.1822
-0.6760 -0.5952 -0.1353
-0.6413 -0.6469 -0.0088
-0.7284 -0.6942 0.0821
-0.6167 -0.8233 0.2855
-0.7018 -0.6901 0.3881
-0.3677 -0.6778 -0.0385
-0.6741 -0.7142 -0.3218
-0.5979 -0.6110 0.1826
-0.5710 -0.6752 -0.3529
-0.7955 -0.7314 -0.0822
-0.5617 -0.7310 -0.1590
-0.3791 -0.7360 -0.0723
-0.7877 -0.7248 -0.3787
-0.4104 -0.7534 -0.2311
-0.2634 -0.7323 -0.0414
-0.4980 -0.7206 0.2929
-0.5708 -0.8039 0.1129
-0.4701 -0.6249 -0.0132
-0.4933 -0.7259 0.3220
-0.1067 -0.0105 -0.2601
-0.1241 -0.0165 -0.2474
-0.1036 -0.0329 -0.2247
-0.5682 -0.7537 0.1650
-0.6481 -0.7164 0.2408
-0.8993 -0.7482 0.1809
-0.8771 -0.6296 0.1026
-0.8574 -0.4987 -0.1660
-0.7822 -0.5295 -0.2137
-0.8680 -0.6511 0.0654
-0.0951 -0.7434 -0.6422
0.0086 -0.0375 -0.1733
0.0808 0.0149 -0.1698
-0.0072 0.0001 -0.2213
-0.3917 -0.7603 0.4236
-0.0379 -0.0003 -0.3033
-0.8934 -0.7469 0.2008
0.2700 -0.5652 0.1802
-0.8145 -0.7222 -0.0403
0.1969 -0.0137 -0.2226
-0.0445 -0.0242 -0.2992
-0.5153 -0.7275 -0.3362
-0.7381 -0.7308 0.3983
-0.4763 -0.6930 0.4316
-0.6058 -0.7147 0.1912
-0.8797 -0.6244 0.0022
-0.8746 -0.6033 -0.0422
-0.3712 -0.7876 0.0376
-0.7917 -0.6971 -0.0464
-0.7000 -0.7226 -0.0469
-0.8509 -0.6703 -0.3053
0.1593 -0.6978 -0.2475
0.1055 0.0106 -0.1887
0.0583 -0.6281 -0.2473
0.0418 0.0100 -0.2025
-0.4437 -0.7740 -0.2459
-0.1832 -0.7759 -0.6032
-0.4687 -0.6487 0.5248
-0.6758 -0.6936 0.4610
-0.1278 -0.7500 -0.4379
0.0925 0.0283 -0.3128
-0.2248 -0.6404 -0.3324
-0.2996 -0.7126 -0.2241
-0.4368 -0.6693 0.0050
-0.6939 -0.7014 -0.1979
-0.1284 -0.7039 -0.2536
-0.4761 -0.6138 -0.3793
0.1408 0.0398 -0.1856
-0.0898 -0.6863 0.1031
-0.4301 -0.6786 0.0649
-0.6592 -0.7816 0.4454
-0.0825 -0.0249 -0.2158
-0.7275 -0.6664 0.0786
-0.5407 -0.7073 -0.1295
-0.0651 -0.0047 -0.3494
-0.8179 -0.6963 0.2953
-0.8815 -0.5667 0.1847
-0.6223 -0.6927 0.2665
-0.8848 -0.6515 0.1347
-0.3777 -0.7205 -0.2781
0.0316 -0.0039 -0.1928
-0.2524 -0.6699 -0.0108
-0.6801 -0.6904 -0.2170
-0.5581 -0.7334 -0.1317
-0.4264 -0.6138 0.2119
-0.4104 -0.6943 -0.5526
0.0540 -0.0132 -0.2185
-0.6791 -0.6953 -0.1009
-0.7534 -0.3870 -0.1464
-0.4555 -0.6970 0.1221
0.3527 -0.6910 -0.3192
-0.5072 -0.7343 -0.5385
-0.7285 -0.7189 -0.2680
-0.3363 -0.7357 0.1984
-0.1652 -0.6274 -0.0532
-0.3587 -0.6911 -0.0356
-0.5315 -0.7368 0.3955
-0.5852 -0.6782 0.2058
-0.7086 -0.7226 0.1320
-0.4561 -0.7604 0.6750
-0.5868 -0.7131 0.1484
-0.5303 -0.8066 0.3578
-0.5433 -0.7869 0.0524
-0.8591 -0.4904 0.2132
-0.4184 -0.7403 0.3055
-0.8637 -0.7047 0.2059
-0.8003 -0.6848 0.3062
0.4937 -0.6569 -0.4334
-0.0210 0.0274 -0.1651
-0.1330 -0.6937 -0.4745
-0.6615 -0.6462 -0.3603
-0.4941 -0.5432 -0.4492
-0.6398 -0.6601 0.2330
-0.7701 -0.7115 0.1856
-0.8412 -0.6898 0.3837
-0.6877 -0.7164 0.5251
-0.8003 -0.7586 0.5168
-0.7149 -0.6848 0.1872
-0.5402 -0.6160 -0.2175
-0.4330 -0.7253 0.2329
-0.5918 -0.5204 0.4139
-0.5576 -0.8132 0.6377
0.0694 0.0511 -0.3852
-0.1474 -0.8250 0.1750
-0.1003 -0.7808 -0.4068
-0.4087 -0.6756 0.5526
-0.6606 -0.7272 0.5436
-0.1552 -0.6703 0.9109
0.0937 0.0271 -0.2200
0.1476 -0.6237 -0.3646
-0.2775 -0.6114 -0.2368
-0.1011 -0.3139 -0.1558
-0.2856 -0.6350 -0.0306
-0.6928 -0.6898 0.4206
-0.0599 0.0108 0.3795
-0.0772 0.0702 0.3710
-0.0756 0.0274 0.4834
-0.0944 0.0219 0.5430
-0.0563 0.0154 0.6336
-0.1266 -0.0064 0.6470
-0.1722 -0.0131 0.6269
0.0555 0.0183 0.1926
0.1001 0.0264 0.2145
0.1912 0.0152 0.2576
0.0191 0.0123 0.2089
0.0777 0.0116 0.2389
0.1109 0.0249 0.2584
0.0275 0.0183 0.2500
0.0947 0.0104 0.2811
0.1788 0.0183 0.3662
0.0024 0.0167 0.3066
0.0263 0.0108 0.3505
0.0377 0.0141 0.3906
-0.0252 0.0178 0.3626
-0.6746 -0.6489 0.2703
-0.0388 0.0097 0.5407
-0.0311 0.0147 0.5796
-0.6089 -0.6163 0.4371
-0.0551 0.0020 0.6030
0.0166 -0.0300 0.7274
-0.0752 -0.0002 0.6676
0.1931 0.0192 0.5156
-0.6259 -0.6347 0.0800
-0.4281 -0.7097 0.9507
0.0260 0.0307 0.2848
0.0436 0.0284 0.3246
-0.0156 0.0452 0.4440
-0.0349 0.0283 0.4692
0.0609 -0.0076 0.6544
-0.1252 0.0132 0.5662
-0.4301 -0.2488 0.8004
0.1087 0.2426 1.0590
-0.1638 -0.0001 0.6124
0.1643 0.0480 0.2244
-0.0090 0.0043 0.2307
0.1441 0.0703 0.4523
0.0994 0.0130 0.7306
0.0155 -0.3361 0.0823

