-0.0267 -0.1147 0.0589
-0.1157 -0.8825 1.0845
0.0103 -0.1222 0.1565
0.0109 -0.0721 0.0993
0.0182 -0.0476 0.0776
0.0184 -0.0599 0.0936
0.0046 -0.0888 0.1258
-0.0271 -0.1309 0.1675
-0.0371 -0.1556 0.1930
-0.0485 -0.2143 0.2668
-0.0920 -0.3913 0.4809
0.0156 -0.0847 0.1172
0.5642 -1.4882 1.0530
-0.6720 -1.4707 0.9843
-0.6554 -1.5707 1.0468
-0.4307 -0.8731 1.0163
0.2779 -0.8776 1.0584
-0.3451 -0.8806 1.0502
0.2557 -0.8837 1.0655
-0.4181 -0.8851 1.0530
-0.4086 -0.9422 1.1150
0.2950 -1.6884 0.9019
-0.0946 -0.8983 1.0765
0.0561 -0.8725 1.0801
0.2798 -0.8825 1.0907
-0.1897 -0.8812 1.0539
0.1573 -0.8775 1.0851
0.2763 -0.8739 1.1601
-0.0668 -0.8734 1.0755
0.0304 -0.8800 1.0628
0.0568 -0.8783 1.0344
-0.1378 -0.8822 1.0306
0.2769 -0.8772 1.1375
-0.1401 -0.8720 1.0699
-0.1428 -0.8869 1.1155
-0.2049 -0.8714 1.0691
-0.3707 -0.8808 1.0756
0.1587 -0.8791 1.0609
-0.0104 -0.0539 0.1690
-0.0128 -0.0522 0.1683
-0.0245 -0.0523 0.1725
-0.0224 -0.0464 0.1614
-0.0207 -0.0346 0.1586
-0.0231 -0.0459 0.1752
-0.0153 -0.0438 0.1601
-0.0223 -0.0430 0.1599
-0.0281 -0.0390 0.1552
-0.0136 -0.0594 0.1754
-0.0211 -0.0266 0.1428
-0.0239 -0.0232 0.1389
-0.0205 -0.0526 0.1688
-0.0224 -0.0408 0.1605
-0.0367 -0.0601 0.1847
-0.0260 -0.0303 0.1538
-0.0150 -0.0443 0.1622
-0.0169 -0.0657 0.1475
-0.7423 -1.8554 1.2301
-0.4523 -0.9258 1.0930
-0.4316 -0.9626 1.5246
-0.4530 -0.9182 1.1660
-0.3818 -0.9384 1.1088
0.0104 -0.9600 1.1600
-0.3613 -0.9560 1.1296
-0.1174 -0.9760 1.2189
-0.0076 -0.9749 1.1619
-0.0372 -0.9653 1.2094
-0.0427 -0.9616 1.1571
-0.0932 -0.9472 1.1107
-0.1653 -0.9527 1.1304
-0.2442 -0.9641 1.3642
0.1964 -1.3284 0.7215
-0.7340 -1.6361 1.2090
-0.7510 -1.7575 1.1833
-0.3646 -1.7280 0.6554
-0.0936 -0.9516 1.1708
-0.1126 -0.9747 1.1570
-0.2897 -0.9664 1.1710
-0.3778 -0.9921 1.3144
-0.8006 -0.6733 2.9233
-1.2004 -0.9935 2.9144
-1.0442 -0.9452 1.9301
-0.8921 -0.7333 3.0918
-1.1098 -0.9875 2.0212
-0.5608 -1.2953 0.9801
-0.1894 -0.9053 1.0511
-0.4932 -0.9660 1.1073
-0.5344 -0.7576 3.1007
-0.7833 -0.9687 2.9377
-1.5178 -0.9312 3.3898
-0.9644 -0.8974 1.2406
0.1070 -0.9807 1.2331
-0.6237 -1.5477 1.0606
0.2507 -1.0108 1.2070
0.0175 -0.9728 1.1913
-0.1358 -0.8836 1.0569
-0.1848 -0.8810 1.0781
-0.1985 -0.8533 1.0024
-0.1836 -0.8870 1.0581
-0.4083 -0.8724 1.0407
-0.4305 -0.8679 1.0610
-1.0041 -1.5981 0.5799
-0.2185 -0.8863 1.2488
-0.4317 -0.8816 1.0471
-0.2255 -0.8906 1.0376
-0.1633 -0.8742 1.0978
-0.3136 -0.8797 1.2352
-0.3381 -0.8765 1.0446
-0.1880 -0.8795 1.1304
-0.2041 -0.8817 1.0555
-0.3691 -0.8690 1.1883
-0.3585 -0.8695 1.0351
-0.3832 -0.8663 1.0323
-0.4090 -0.8739 1.0642
-1.1768 -1.0525 1.4097
-0.7767 -1.5631 0.6120
-0.8518 -1.5568 0.5763
-1.3366 -1.3675 1.1029
-1.2856 -1.2245 1.1559
-1.4454 -0.8976 1.2242
-1.2869 -0.6149 1.4412
-1.1210 -0.9596 1.3770
-1.2986 -1.2378 1.2268
-1.4560 -0.6187 1.4185
-1.1738 -0.9472 1.3729
-0.7046 -1.5629 1.0489
-1.1395 -1.3797 1.1718
-1.2883 -1.0732 1.7043
-1.2701 -0.9622 1.6782
-1.3582 -1.2169 1.1550
-1.1839 -0.9149 1.5840
-0.4412 -0.9023 1.1452
-1.2626 -0.6852 1.4025
-0.1791 -0.8604 1.0049
-0.2915 -0.8746 1.0429
-1.3178 -0.8824 1.8404
-1.1350 -0.8143 1.5891
-1.2901 -1.1603 1.1792
-0.6441 -1.5734 1.0575
-0.1735 -0.8722 1.4295
-0.3482 -0.8768 1.3959
0.1280 -0.8393 1.1453
-0.2112 -0.8689 1.4212
-0.3395 -0.8725 1.0908
-0.0429 -0.8824 1.1932
-0.0666 -0.8659 1.1457
-0.3673 -0.8764 1.3351
-0.3598 -0.8835 1.0239
-0.3824 -0.8782 1.0189
-0.4064 -0.8820 1.0217
-0.1580 -0.8720 1.0173
-1.2052 -0.4912 1.6875
-0.9549 -0.8687 1.8021
-0.1079 -0.8987 1.0461
-1.1258 -1.5704 1.1307
-0.1524 -0.8832 1.5263
-0.0547 -0.8920 1.5425
-0.3549 -0.8571 1.0476
-0.3406 -0.8778 1.0497
-1.2451 -0.6114 2.7595
-0.7207 -0.6742 3.0412
-1.1916 -1.0292 2.8582
-0.7835 -0.8985 2.7325
0.0877 -0.9032 1.3116
0.0581 -0.8634 1.0208
0.0313 -0.8949 1.2121
0.0347 -0.8830 1.0905
0.0364 -0.8869 1.0682
0.0098 -0.8793 1.0842
-0.0162 -0.8579 1.0599
-0.0370 -0.8697 1.0203
-0.1811 -0.8457 1.0147
-0.2013 -0.8738 1.0712
-0.2271 -0.8769 1.0989
-0.2201 -0.8370 1.0301
-0.2244 -0.8667 1.0381
-0.2914 -0.8757 1.0202
-0.3112 -0.8685 1.0111
-1.8639 -0.7160 2.9089
-1.1086 -0.8490 1.5334
-1.0728 -0.9997 2.7015
0.0205 -0.8962 1.5251
-1.1213 -0.9382 1.4261
0.1154 -0.8872 1.0944
0.1185 -0.9006 1.0563
0.1144 -0.8835 1.1973
0.0579 -0.8644 1.0482
-0.0624 -0.8500 1.0238
-0.0866 -0.8502 1.0489
-0.1619 -0.8525 1.1264
-0.1782 -0.8789 1.5458
0.2129 -0.9078 1.2884
-0.0720 -0.8622 1.3264
0.0821 -0.8423 1.1503
-0.3176 -0.8801 1.0743
-0.2469 -0.8721 1.0421
-0.3103 -0.8574 1.0259
-0.4303 -0.8779 1.0425
-0.2146 -0.8620 1.2165
-0.7566 -0.4869 2.5585
-0.0935 -0.8574 1.2972
0.0572 -0.8549 1.0628
-0.4227 -0.8472 1.0859
-0.3175 -0.8545 1.1733
-0.3574 -0.8647 1.0319
0.2742 -0.8573 1.1166
0.2759 -0.8588 1.1694
0.2308 -0.8711 1.0509
0.2049 -0.8620 1.0685
0.0327 -0.8623 1.0201
0.0076 -0.8608 1.0648
-0.0404 -0.8694 1.0755
-0.0645 -0.8560 1.0562
-0.1165 -0.8611 1.1659
-0.1830 -0.8587 1.0567
-0.2884 -0.8611 1.0064
-0.3753 -0.8662 0.9816
-1.0434 -1.0295 1.0005
0.1033 -0.7402 3.0489
-0.6259 -1.5196 1.0253
0.2749 -0.8609 1.0416
0.2513 -0.8599 1.1195
0.2503 -0.8598 1.1459
0.1815 -0.8635 1.0982
0.1515 -0.8568 1.2534
0.1250 -0.8477 1.3190
-0.3353 -0.8647 1.0595
-0.2713 -0.8727 1.0459
0.0321 -0.8692 1.0537
-0.1836 -0.8690 1.0436
-0.1336 -0.8544 1.0534
-0.1353 -0.8543 1.0798
0.2981 -0.8639 1.0463
0.3032 -0.8756 1.0833
0.2783 -0.8668 1.0753
0.2517 -0.8614 1.0426
-0.0157 -0.8534 1.0291
-1.3924 -1.1379 3.1135
0.5376 -1.0624 2.9173
0.2546 -0.8716 1.0810
0.1024 -0.8609 1.3641
0.1331 -0.8559 1.0625
0.0289 -0.8700 1.1555
-0.0625 -0.8607 1.0372
-0.0905 -0.8601 1.1412
-0.0857 -0.8681 1.0684
-0.1138 -0.8601 1.1405
-0.1119 -0.8726 1.0764
-0.2020 -0.8697 1.0703
-0.4238 -0.8612 1.0743
-0.2461 -0.8568 1.0775
-0.2484 -0.8718 1.0458
-0.2858 -0.8459 1.0631
-0.3624 -0.8742 1.0700
-0.3846 -0.8769 1.0214
-0.2664 -0.8644 1.0093
-0.0623 -0.8765 1.0773
-0.2381 -0.8607 1.2130
-0.2236 -0.6815 3.6402
-0.6129 -0.6714 3.7190
-0.8302 -0.6258 3.0041
-0.0770 -1.0678 3.2907
0.1888 -1.5774 1.0413
0.2773 -0.8690 1.0247
0.2275 -0.8596 1.0402
0.1371 -0.8749 1.1101
0.0838 -0.8608 1.0424
-0.4154 -0.8930 1.0387
-0.0878 -0.8735 1.0529
-0.1099 -0.8744 1.0490
-0.3587 -0.8654 1.0343
-0.2466 -0.8758 1.0220
-0.2951 -0.8752 1.0485
0.2961 -1.1408 1.0243
-0.3361 -0.8406 1.1552
-0.0086 -0.7790 1.7221
0.5436 -1.4146 1.0098
-0.2257 -0.8537 1.3699
-0.4223 -1.5824 1.0385
0.5533 -1.4745 1.0059
0.2762 -1.5388 0.8360
-0.6895 -1.5359 1.0375
0.2020 -0.8513 1.0559
0.1105 -0.8613 1.0700
-0.0152 -0.8508 1.0263
-0.0854 -1.4788 0.6074
0.0024 -0.8605 1.1704
-0.1390 -0.8533 1.1570
0.4296 -1.1568 3.4108
0.5562 -0.8140 1.8203
0.0565 -0.8531 1.0871
0.1550 -0.8516 1.1356
0.0835 -0.8496 1.0045
0.6295 -0.9758 2.5293
0.5268 -1.3880 1.0568
-0.2129 -0.8159 1.8068
-0.1386 -0.8559 1.2934
-0.1303 -0.8427 1.0109
0.5896 -1.4386 0.6835

