-0.2181 -0.0246 -0.2048
-0.2739 -0.1032 -0.1300
-0.2561 -0.0592 -0.1190
-2.5160 -1.5916 0.4104
-0.8922 -0.4646 0.1631
-0.8528 -0.5037 0.2631
-0.8275 -0.5293 -0.1754
-0.8345 -0.5258 -0.1407
-0.7236 -0.4961 -0.1675
-0.8610 -0.5407 -0.1010
-0.7043 -0.4888 -0.1472
-0.3065 0.0037 -0.2056
-1.0345 -0.5399 0.0102
-0.6522 -0.5860 0.3279
-0.6986 -0.4964 -0.1266
-0.8262 -0.5325 -0.0597
-1.4103 -1.5208 0.9304
-0.6937 -0.5689 0.2258
-0.7807 -0.5239 -0.0562
-0.8628 -0.5513 -0.0175
-0.6943 -0.5514 0.1325
-0.6745 -0.4969 -0.0866
-1.0463 -0.5665 0.1229
-0.7789 -0.8843 0.9034
-0.2381 0.0664 -0.1722
-0.1958 0.0785 -0.1560
-0.7734 -0.2650 -0.0273
-0.5295 -0.2128 -0.0350
-0.4190 0.0022 -0.0326
-0.3155 -0.0184 -0.1239
-0.1370 0.2095 -0.2690
-1.2244 -0.6477 0.1198
-0.6888 -0.4792 -0.2313
-0.5748 -0.4934 -0.0332
-0.6353 -0.6795 0.7710
-1.4180 -1.5310 0.6540
-1.3526 -1.6489 1.2927
-0.8890 -0.8642 1.0169
-1.1536 -1.2625 1.1304
-0.8532 -0.7748 0.4874
-0.5766 -0.1948 0.1666
-0.4490 -0.1221 0.0939
-0.1001 0.2299 -0.2642
-0.1601 0.1829 -0.1902
-0.1964 0.1471 -0.1530
-1.2176 -0.6494 0.0415
-1.0460 -0.5917 0.2299
-1.0945 -0.5183 -0.0342
-1.0692 -0.5711 0.2199
-1.6348 -1.3029 0.4199
-1.6276 -0.8538 0.3955
-1.0540 -0.4840 0.1313
-1.1059 -1.0765 0.4183
-2.1355 -1.1950 0.6374
-1.4838 -1.4327 0.8406
-1.4548 -1.5400 0.8899
-1.3680 -1.5459 0.9108
-1.9714 -1.1676 0.6045
-0.2324 0.1198 -0.1809
-0.1356 0.2033 -0.2593
-0.6657 -0.2606 0.0375
-0.1131 0.2278 -0.2761
-0.1336 0.2222 -0.2851
-0.6554 -0.4894 -0.1201
-0.6244 -0.5133 -0.0356
-1.6180 -0.9157 0.2835
-1.1238 -0.4889 0.1430
-0.9895 -0.7614 0.1064
-1.5344 -0.9262 0.7238
-1.5866 -0.9379 0.3985
-0.1533 0.1951 -0.2476
-0.9596 -1.1363 1.1148
-0.8756 -0.8033 0.3771
-1.2195 -0.9286 1.0069
-1.3094 -1.6244 1.3292
-1.3593 -1.0566 0.7699
-1.4349 -0.9728 0.5158
-0.9127 -0.6199 0.5458
-1.8969 -1.4187 0.2341
-0.9417 -0.6272 0.5375
-1.9266 -1.5203 1.1818
-1.4052 -0.8261 0.5521
-0.6699 -0.6397 0.7681
-0.9724 -0.2762 1.1164
-2.3197 -0.6867 1.9378
-1.2125 -0.1398 0.0849
-0.0795 0.2591 -0.2844
-0.2084 0.1797 -0.2839
-0.1710 0.1720 -0.2525
-0.4209 -0.0756 -0.0564
-1.5736 -1.4882 0.7194
-2.1765 -1.6351 1.0557
-1.8061 -1.2093 0.5112
-1.2568 -1.4023 1.1832
-1.4813 -1.6604 1.3492
-0.9019 -0.6445 0.5459
-1.8011 -1.0686 0.7879
-1.4177 -1.4902 1.8245
-0.7207 -0.6081 0.7469
-0.3338 -0.9883 0.3301
-1.1844 -0.2994 0.8005
-0.1503 0.2062 -0.2823
-1.7047 -1.8842 0.9187
-0.2495 0.0944 -0.0929
-1.7605 -1.6046 0.8983
-0.9772 -0.8385 0.2673
-0.2158 0.1513 -0.2444
-1.3844 -1.6687 1.5135
-1.5204 -2.1069 1.7361
-1.0582 -0.7770 0.0213
-2.3346 -1.3800 0.7842
-0.4734 -2.6300 1.5951
-0.9095 -0.5788 0.1053
-0.1817 0.1816 -0.2755
-0.2726 0.0002 0.0043
-0.2432 0.1287 -0.2214
-0.1880 0.1731 -0.2440
-0.7203 -0.4282 0.5601
-0.1823 0.1829 -0.2859
-2.8694 -2.0702 1.1870
-1.5577 -1.8672 1.7988
-0.2039 0.1897 -0.3039
-2.9156 -1.8861 1.0803
-0.1912 0.1758 -0.2876
-2.7041 -2.0359 1.3600
-2.6299 -1.6776 0.5803
-0.2658 0.0720 -0.2149
-0.2317 0.1503 -0.2377
-0.2337 0.1468 -0.2682
-0.1993 0.1798 -0.2892
-0.1987 0.1685 -0.2564
-0.7931 -3.3035 1.5665
-0.2062 0.1743 -0.2771
-0.2253 0.1549 -0.2845
-0.2578 0.0792 -0.1911
-0.2960 0.0362 -0.0916
-0.2073 0.1745 -0.2796
-0.1844 0.1992 -0.3044
-0.2035 0.1784 -0.2879
-0.2022 0.1803 -0.2878
-0.1899 0.1911 -0.2977
-0.1573 0.2001 -0.2675
-0.1541 0.1791 -0.1889
-0.4104 -0.1860 0.2270
-0.2368 0.1278 -0.1911
-0.1959 0.1906 -0.2933
-0.1930 0.1927 -0.2953
-0.1287 0.1959 -0.2095
-0.1980 0.1901 -0.2980
-0.2093 0.1844 -0.2948
-0.1707 0.1419 -0.1139
-0.1130 0.1841 -0.1557
-0.4092 -0.0114 -0.1507
-0.1931 0.1972 -0.3031
-0.2273 0.1513 -0.2378
-0.1189 0.1929 -0.2345
-0.1909 0.2005 -0.3104
-0.1371 0.2200 -0.2779
-0.1249 0.1567 -0.2647
-0.1950 0.1892 -0.2977
-0.2382 0.1551 -0.2740
-0.2389 0.1229 -0.1677
-0.2011 0.1857 -0.3013
-0.2088 0.1862 -0.3031
-0.2057 0.1862 -0.2953
-0.1839 0.2062 -0.3114
-0.2280 0.1678 -0.2955
-0.2456 0.1562 -0.2679
-0.1359 0.1975 -0.2406
-0.2334 0.1668 -0.2988
-0.1965 0.1946 -0.3075
-0.1293 0.2166 -0.2619
-0.1851 0.2054 -0.3104
-0.1737 0.1835 -0.2683
-0.1779 0.1848 -0.2694
-0.2724 0.1164 -0.2122
-0.2465 0.1501 -0.2998
-0.2705 0.1253 -0.2513
-0.1433 0.1995 -0.2516
-0.2143 0.1796 -0.3029
-0.2449 0.1523 -0.2688
-0.2459 0.1547 -0.2648
-0.2715 0.1278 -0.2636
-0.3269 0.0813 -0.1979
-0.2376 0.1558 -0.2635
-0.1690 0.1874 -0.2537
-0.2199 0.1351 -0.1806
-0.1904 0.1998 -0.3021
-0.2177 0.1709 -0.2669
-0.2353 0.1573 -0.2560
-0.2043 0.1795 -0.2876
-0.2425 0.1603 -0.2810
-0.3224 0.1055 -0.2557
-0.3038 0.0922 -0.2375
-0.1845 0.1927 -0.2876
-0.2199 0.1603 -0.2606
-0.2212 0.1605 -0.2598
-0.1958 0.1831 -0.2796
-0.2515 0.1500 -0.2528
-0.1909 0.1954 -0.2899
-0.1842 0.1949 -0.2838
-0.1926 0.1975 -0.3030
-0.1849 0.2049 -0.3095
-0.2309 0.1711 -0.2995
-0.2607 0.1464 -0.2632
-0.2305 0.1707 -0.2946
-0.1835 0.2065 -0.3132
-0.2347 0.1528 -0.2520
-0.1883 0.1972 -0.2918
-0.1865 0.1906 -0.2808
-0.2092 0.1764 -0.2763
-0.2200 0.1789 -0.2858
-0.2060 0.1784 -0.2630
-0.2101 0.1766 -0.2733
-0.2835 0.1311 -0.2628
-0.2856 0.1208 -0.2635
-0.2455 0.1522 -0.2758
-0.2063 0.1871 -0.3024
-0.2124 0.1810 -0.2965
-0.2132 0.1851 -0.2946
-0.2121 0.1806 -0.2928
-0.2113 0.1824 -0.2903
-0.2079 0.1892 -0.3020
-0.1941 0.1949 -0.2929
-0.2060 0.1878 -0.3029
-0.1945 0.1955 -0.3023
-0.1940 0.1906 -0.2912
-0.2006 0.1889 -0.2978
-0.2402 0.1547 -0.2707
-0.8126 -0.5549 -0.0154
-0.8239 -0.5379 -0.0095
-0.8616 -0.5380 -0.0780
-0.5955 -0.5237 0.1249
-0.7143 -0.5365 -0.0978
-1.1635 -0.5426 -0.1399
-0.4123 -0.9097 0.2533
-0.7574 -0.5120 0.4956
-0.7230 -0.5477 0.5108
-0.7117 -0.5138 0.3021
-1.0283 -0.5235 0.0619
-1.0910 -0.5248 0.2635
-0.9412 -0.5337 -0.0969
-0.6745 -0.5483 0.4810
-0.9124 -0.5278 0.2377
-0.7047 -0.5546 0.3846
-0.9045 -0.5153 0.3023
-1.1581 -0.5479 -0.1176
-1.0206 -0.5291 0.0815
-0.7471 -0.5437 0.1537
-0.9516 -0.5264 0.3098
-0.9330 -0.5174 0.2719
-1.0782 -0.5322 0.0656
-0.2122 -1.0617 0.2828
-0.7726 -0.5433 0.1985
-1.2169 -0.5356 0.0541
-1.2193 -0.5449 -0.1143
-1.2073 -0.5447 -0.0927
-0.9270 -0.5242 0.2958
-0.7614 -0.5253 0.0952
-1.2153 -0.5338 0.1101
-0.9334 -0.5270 0.3476
-0.9405 -0.5312 0.0220
-1.2827 -0.5431 -0.0547
-0.6799 -0.5244 0.4312
-1.2730 -0.5462 -0.0305
-0.9128 -0.5344 0.1338
-0.7870 -0.5244 0.3533
-1.0105 -0.5326 0.1048
-1.1152 -0.5340 0.2442
-0.8136 -0.5378 0.1080
-0.3329 -1.0821 0.3047
-1.1381 -0.5264 0.1763
-1.0891 -0.5231 0.2175
-1.0710 -0.5259 0.3055
-1.1210 -0.5269 -0.1014
-0.7431 -0.5133 0.4625
-0.8407 -0.5140 0.3503
-0.8880 -0.5291 -0.1342
-0.8989 -0.5357 -0.0128
-1.0045 -0.5391 -0.0906
-1.1142 -0.5357 0.1360
-0.5402 -0.5084 0.3728
-1.1109 -0.5410 0.0254
-0.9140 -0.5260 0.5514
-0.8280 -0.5194 0.5261
-1.1072 -0.5345 0.3199
-0.6477 -0.5347 0.1572
-0.7518 -0.5268 0.1176
-0.6899 -0.5349 -0.1112
-0.7927 -0.5592 0.0326
-1.0464 -0.5285 0.3630
-0.9209 -0.5240 0.4192
-0.9235 -0.5382 -0.0539
-0.3332 -0.8107 0.3339
-0.7434 -0.5180 0.1171
-0.7641 -0.5179 0.1640
-0.7457 -0.5394 0.2844
-0.7960 -0.5319 0.1311
-0.7849 -0.5312 0.1513
-0.8668 -0.5444 -0.0708
-0.7709 -0.5479 0.0542

