-0.0046 -0.0675 -0.0013
-0.0175 -0.0512 0.0038
-0.0018 -0.0326 0.0002
0.0091 -0.0135 0.0099
0.0531 -0.1054 -0.0122
0.0441 -0.3247 0.2733
0.0612 -0.3097 0.3131
0.0567 -0.3310 0.1733
0.0375 -0.3370 0.2841
0.0932 -0.3253 0.1692
0.0506 -0.3106 0.2593
0.0579 -0.3297 0.2296
0.2517 -0.6536 -0.0724
0.2667 -0.7039 -0.1491
0.0381 -0.3313 0.2864
0.0631 -0.3302 0.2251
0.0542 -0.3159 0.1756
0.0634 -0.3200 0.1665
0.0485 -0.3190 0.2825
-0.0032 -0.2981 0.0766
0.0715 -0.3199 0.1666
0.0737 -0.3181 0.1578
0.1715 -1.1472 -0.0048
0.2434 -0.7273 -0.1245
0.0827 -1.0567 -0.2777
0.1202 -1.1253 0.0018
0.0635 -1.1295 -0.0362
0.1568 -1.1296 0.0157
0.1264 -1.1441 -0.3037
0.2163 -1.2183 -0.2815
0.1651 -1.1868 -0.0088
0.0856 -1.0734 -0.2717
0.0214 -1.1224 -0.4047
0.2461 -0.7000 -0.1190
-0.0223 -1.2147 -0.2820
0.0465 -0.3231 0.1751
0.0550 -0.3180 0.0203
0.2736 -1.1522 -0.3194
0.1371 -1.0877 -0.2034
0.1122 -1.1801 -0.2326
-0.2632 -1.2178 -0.0048
0.3395 -1.1262 -0.2791
0.0503 -0.3184 0.1988
0.0456 -0.3221 0.1842
0.0611 -1.2299 0.0040
0.2613 -0.6997 -0.0688
0.2437 -1.1981 -0.0833
0.2339 -1.1785 -0.2984
0.1268 -1.1604 -0.0018
0.1739 -1.2011 -0.2797
-0.0692 -1.2557 0.1186
-0.0066 -1.2352 -0.1219
0.0350 -0.9820 -0.3259
0.0088 -1.0656 -0.2794
-0.1284 -1.2006 0.0611
-0.4847 -1.2040 0.2593
0.0562 -1.0294 -0.2527
0.0667 -0.3172 0.0535
0.2726 -0.7104 -0.0760
0.1297 -1.1519 0.0186
0.0567 -1.0450 -0.2631
-0.1243 -1.2306 0.1528
-0.1438 -1.2417 0.1173
-0.1762 -1.1804 0.0389
-0.0001 -1.1545 -0.4376
-0.1015 -1.2166 -0.2735
-0.6134 -1.1733 0.2271
-0.5641 -1.1836 0.0418
-0.6238 -1.1200 0.1778
-0.0194 -1.2483 0.0903
-0.0216 -1.1875 -0.4611
-0.6695 -1.2071 0.1938
0.1215 -1.2171 0.0048
0.1139 -1.2054 -0.1657
-0.2130 -1.2159 -0.3018
-0.1346 -1.1829 -0.3668
-0.3054 -1.2081 -0.0662
-0.2409 -1.2210 -0.1561
-0.0375 -1.1860 -0.4134
0.1750 -1.2115 0.1698
-0.1178 -1.1955 -0.1710
-0.2462 -1.1625 -0.3907
0.1411 -1.2234 0.1220
0.0716 -1.2265 0.0087
-0.1749 -1.2168 0.0813
-0.2435 -1.2195 -0.3659
-0.6190 -1.1486 0.1408
-0.0125 -1.1854 -0.4731
-0.7940 -1.0895 0.5212
-0.0402 -1.1970 -0.3097
0.0029 -1.2008 -0.3266
-0.0672 -1.2023 -0.2269
-0.0744 -1.1820 -0.2079
0.1144 -1.1795 -0.2072
0.0019 -1.2018 -0.2346
-0.0140 -1.2134 -0.1595
-0.0627 -1.2892 0.2228
0.1247 -1.1606 0.0291
-0.0202 -1.3011 0.2703
-0.3158 -1.2429 0.2743
0.0005 -1.2105 -0.2715
-0.8704 -1.2303 0.1148
-0.5762 -1.1352 -0.2382
-0.2438 -1.2341 -0.0270
-0.4523 -1.1957 0.1441
0.0344 -0.3291 0.2829
-0.6238 -1.1135 -0.6181
-0.0347 -1.2585 -0.7432
-0.4802 -1.1592 -0.8830
-0.9826 -1.2447 -0.9775
-0.5342 -1.1626 -1.2094
-0.3574 -1.1748 -0.9963
-0.2911 -1.1670 -0.9350
-0.2671 -1.1376 -0.9068
-0.4040 -1.1573 -0.8859
-0.5202 -1.1761 -0.9143
-0.7936 -1.1463 -1.1594
-1.1024 -1.1617 -1.0549
-0.8431 -1.1671 -1.2231
-0.5030 -1.1616 -1.1861
-1.0116 -1.1121 -0.9640
-0.5184 -1.1561 -0.9969
-0.9693 -0.9688 -1.1945
-0.8087 -1.1675 -1.3389
-0.6493 -1.1574 -1.3050
-0.6469 -1.1719 -0.4961
-0.5538 -1.1913 -0.5518
-1.0998 -1.0870 -1.0757
-0.8839 -1.1184 -1.0996
-0.9134 -0.9207 -1.2106
-0.8225 -0.9419 -1.2542
-0.7734 -1.1666 -1.4090
-0.5640 -1.1464 -0.4871
-0.5095 -1.1721 -1.2141
-0.9065 -1.1212 -1.2239
-0.5172 -1.1358 -1.0112
-0.8999 -1.0393 -1.1364
-0.9961 -1.0453 -1.1194
-1.3342 -1.1301 -1.2554
-1.0628 -1.1418 -0.6364
-0.9424 -0.9198 -1.3071
-0.8622 -0.9795 -1.4055
-0.7077 -1.1744 -0.5923
-0.7023 -1.1057 -0.6224
-1.0329 -0.8809 -1.2599
-0.6043 -1.1418 -1.0407
-1.6556 -1.1329 -1.2939
-0.1113 -1.1133 -0.9990
-1.0622 -1.1928 -0.9382
-0.6779 -1.1569 -0.4039
-1.0596 -1.1754 -0.9425
-1.7104 -1.1359 -1.2288
-1.3341 -1.1428 -1.1792
-1.7326 -1.2176 -1.4496
-0.5728 -1.1404 -1.2702
-0.5960 -1.1048 -1.3038
-0.1099 -1.1332 -1.0670
-0.8368 -0.9849 -1.4525
-0.1309 -1.1563 -1.0437
-0.4911 -1.1189 -1.1941
-0.8677 -0.9104 -1.3876
-0.8044 -0.8491 -1.2705
-0.9859 -1.1988 -1.2837
-1.3973 -1.1859 -1.5086
-0.9779 -1.1108 -1.1185
-0.6947 -1.1910 -0.6279
-1.0271 -1.1067 -1.0968
-1.0255 -1.1484 -1.0566
-1.1068 -1.0601 -1.1127
-1.1271 -1.1129 -1.0585
-0.6096 -1.0744 -0.6625
-0.7672 -1.1553 -1.3883
-0.5092 -1.1795 -1.3616
-0.5134 -1.1403 -1.2196
-0.6664 -1.1625 -1.0200
-0.7686 -1.1596 -1.3431
-1.7836 -1.2066 -1.3488
-0.0669 -1.1117 -1.0395
-1.1846 -1.2047 -0.9877
-0.8672 -1.1864 -1.2098
-0.9113 -0.9929 -1.5897
-0.9115 -1.0996 -1.6663
-1.3247 -1.0330 -1.2966
-0.8937 -1.1462 -0.8249
-1.0534 -1.0127 -1.1648
-1.0079 -0.9097 -1.3710
-0.6332 -1.1523 -1.1710
-0.2815 -1.1310 -1.2413
-0.1281 -1.1012 -1.0928
-0.9053 -0.8724 -1.2742
-0.8387 -0.9528 -1.2088
-0.8702 -0.8678 -1.3507
-0.8293 -0.9547 -1.3234
-0.6900 -1.1316 -1.3412
-0.3460 -1.1186 -1.3242
-0.5799 -0.4907 -1.5632
-1.0353 -1.0857 -1.1174
-0.5360 -1.1518 -1.1859
-0.8646 -1.1188 -1.1624
-0.8520 -0.9746 -1.2529
-0.8268 -0.5257 -1.5214
-0.3736 -1.1410 -1.5169
-0.4134 -1.1823 -1.5695
-0.9969 -0.9158 -1.2007
-0.8423 -1.2176 -1.4279
-0.6852 -1.1748 -1.5104
-0.6644 -0.4891 -1.5958
-0.7953 -0.9663 -1.3630
-0.8460 -1.0204 -1.2619
-0.4220 -1.1550 -1.5074
-0.5779 -1.1398 -1.2046
-0.5434 -0.4819 -1.6099
-0.3775 -0.4584 -1.7375
-0.7876 -1.1621 -1.3819
-0.4443 -0.4896 -1.6681
-0.7136 -0.5047 -1.5823
-0.7754 -0.5160 -1.5873
-0.3377 -1.0589 -1.0549
-0.3075 -1.1328 -1.2179
-0.1591 -1.0915 -1.2171
-0.3475 -0.4638 -1.6189
-0.1928 -1.1001 -1.0022
-0.5651 -0.4732 -1.8119
-0.4172 -0.4874 -1.8185
-0.5842 -0.4617 -1.7087
-0.2137 -0.4696 -1.8487
-0.1765 -0.4508 -1.6762
-0.2166 -0.4649 -1.7809
-0.1962 -0.4504 -1.8412
-0.4766 -0.4671 -1.7083
-0.4906 -0.4799 -1.8207
-0.2539 -0.4708 -1.6597
-0.2721 -0.4711 -1.7884
-0.4826 -0.4818 -1.8669
-0.2724 -0.4590 -1.6482
-0.3133 -0.4338 -1.8504
-0.4182 -0.4644 -1.7091
-0.4517 -0.4757 -1.8658
-0.2925 -0.4474 -1.8454
-0.3141 -0.4730 -1.7873
-0.3363 -0.4552 -1.6415
-0.3864 -0.4584 -1.8851
-0.2680 -0.4576 -1.8829
-0.5352 -0.4797 -1.7350
-0.2167 -0.4652 -1.7979
-0.2013 -0.4680 -1.8263
-0.9477 -0.9263 -1.1862
-0.4094 -0.4574 -1.5842
-0.6634 -0.4478 -1.6852
-0.2653 -0.4845 -1.8791
-0.6510 -0.4683 -1.6908
-0.2453 -0.4618 -1.8162
-0.4153 -0.4655 -1.7716
-0.4543 -0.4972 -1.8038
-0.5063 -0.4719 -1.7454
-0.5279 -0.5175 -1.8007
-0.5469 -0.4696 -1.7310
-0.5405 -0.4522 -1.7813
-0.6459 -0.4582 -1.8377
-0.5603 -0.4560 -1.5718
-0.7100 -1.1491 -1.2860
-0.5353 -0.4460 -1.7289
-0.5436 -0.4606 -1.7549
-0.5062 -0.4695 -1.6655
-0.3733 -0.4138 -1.5964
-0.4105 -0.4637 -1.6769
-0.6614 -0.4834 -1.6841
-0.3522 -0.4771 -1.7183
-0.6461 -0.4485 -1.6959
-0.2672 -0.4986 -1.7297
-0.6211 -0.4430 -1.7454
-0.2025 -0.4647 -1.7671
-0.5775 -0.4670 -1.5369
-0.6171 -0.4532 -1.7001
-0.5650 -0.4453 -1.5544
-0.4998 -0.5051 -1.9424
-0.5810 -0.4815 -1.9101
-0.2933 -0.4629 -1.7037
-0.7226 -0.4232 -1.8010
-0.4352 -0.4698 -1.7680
-0.5364 -0.4534 -1.6512
-0.6864 -0.4547 -1.6849
-0.6129 -0.4741 -1.9477
-0.4155 -0.4699 -1.6233
-0.2481 -0.4314 -1.7088
-0.4715 -0.4335 -1.6451
-0.4846 -0.4630 -1.7198
-0.3220 -0.4533 -1.8038
-0.5289 -0.4593 -1.6932
-0.5269 -0.4940 -1.6352
-0.3360 -0.4915 -1.7643
-0.6307 -0.4692 -1.6116
-0.5811 -0.4744 -1.8761
-0.4410 -0.4606 -1.6972
-0.2945 -0.4648 -1.8077
-0.2714 -0.4738 -1.9505
-0.4335 -0.4608 -1.8221
-0.6306 -0.4834 -1.5701
-0.5256 -0.4642 -1.6121
-0.5054 -0.4618 -1.6387
-0.5666 -0.4556 -1.5714
-0.7092 -0.4756 -1.6760
-0.7022 -0.4978 -1.6805
-0.7739 -0.4757 -1.9523
-0.7121 -0.4652 -1.8934
-0.6233 -0.4746 -1.9571
-0.5414 -0.4489 -1.6947
-0.6489 -0.5344 -2.0761
-0.5950 -0.4563 -1.9488
-0.5519 -0.4663 -1.7847
-0.4751 -0.4435 -1.6050
-0.5059 -0.4894 -2.0237
-0.4704 -0.4829 -1.6361
-0.3376 -0.4826 -1.8586
-0.3332 -0.4574 -1.9766
-0.3021 -0.4930 -1.6802
-0.3299 -0.5034 -2.1654
-0.2823 -0.4629 -1.6804
-0.2937 -0.4292 -1.7934
-0.7158 -0.4608 -1.6883
-0.7423 -0.4526 -1.8026
-0.7003 -0.4969 -1.8685
-0.6015 -0.4700 -2.0192
-0.6973 -0.5111 -1.7082
-0.5063 -0.4772 -1.9621
-0.4026 -0.5204 -1.7214
-0.7014 -0.4682 -1.5889
-0.6651 -0.4665 -1.5781
-0.7214 -0.4595 -1.7679
-0.7739 -0.4690 -1.6519
-0.4114 -0.4656 -1.8022
-0.4498 -0.4557 -1.6948
-0.4573 -0.4613 -1.5747
-0.4730 -0.4658 -1.5726
-0.7310 -0.4665 -1.6628
-0.6568 -0.4665 -1.5075
-0.5863 -0.4669 -1.5519
-0.7753 -0.4664 -1.8782
-0.7442 -0.4572 -1.8510
-0.6338 -0.4667 -1.5297
-0.7304 -0.4684 -1.5327
-0.7070 -0.4880 -1.5470
-0.8027 -0.4685 -1.7091
-0.7567 -0.4715 -1.8350
-0.7333 -0.4688 -1.5627
-0.6542 -0.4573 -1.5423
-0.6108 -0.4629 -1.5483
-0.7072 -0.4643 -1.6843
-0.6108 -0.4601 -1.5811
-0.6705 -0.4756 -1.8578
-0.6352 -0.4654 -1.7292
-0.7815 -0.4678 -1.7064
-0.7113 -0.4695 -1.6607
-0.5678 -0.4630 -1.6169
-0.7260 -0.4702 -1.5886
-0.7052 -0.4689 -1.5371
-0.3818 -0.4551 -1.8294
-0.5658 -0.4542 -1.7589
-0.5731 -0.4672 -1.7977
-0.4699 -0.4916 -1.8202
-0.5385 -0.5007 -1.6795
-0.5286 -0.4822 -1.9309
-0.5472 -0.4815 -2.0336
-0.5610 -0.4811 -1.8491
-0.5399 -0.4682 -1.7947
-0.7272 -0.4644 -1.6484
-0.5223 -0.4669 -1.8197
-0.8350 -0.4769 -1.7942
-0.5892 -0.4866 -1.9936
-0.7043 -0.4609 -1.5111
-0.4389 -0.4674 -1.6545
-0.6104 -0.4731 -1.9101
-0.8183 -0.4883 -1.8346
-0.5401 -0.4678 -1.6219
-0.5918 -0.4613 -1.8628
-0.7241 -0.4646 -1.5928
-0.6819 -0.4712 -1.8989
-0.6100 -0.4646 -1.7312
-0.6749 -0.4967 -2.0327
-0.7064 -0.4641 -1.6448
-0.5187 -0.4906 -2.1177
-0.7824 -0.4851 -1.7795
-0.7106 -0.4632 -1.7958
-0.6231 -0.4620 -1.5164
-0.6825 -0.4739 -1.7945
-0.6302 -0.4962 -1.6567
-0.6159 -0.4752 -1.5370
-0.6959 -0.5046 -1.9656
-0.5697 -0.4797 -1.8697
-0.5141 -0.4668 -1.8573
-0.4813 -0.4696 -1.8802
-0.4610 -0.4796 -1.9270
-0.4975 -0.4703 -1.6205
-0.6865 -0.4918 -1.5308
-0.6340 -0.4716 -1.5767
-0.7559 -0.4475 -1.4653
-0.7266 -0.4491 -1.4782
-0.6607 -0.4593 -1.6047
-0.5454 -0.4834 -1.6131
-0.9054 -0.4691 -1.7744
-0.4490 -0.4684 -1.8627
-0.7960 -0.4605 -1.5864
-0.8680 -0.4681 -1.8037
-0.7944 -0.5142 -1.9740
-0.5914 -0.4816 -1.5211
-0.7205 -0.5061 -2.0312
-0.5500 -0.4472 -1.9698
-0.5216 -0.4606 -1.8843
-0.3909 -0.4566 -1.5893
-0.6700 -0.4704 -1.7440
-0.6289 -0.5082 -1.7894
-0.8620 -0.4477 -1.6252
-0.5726 -0.4974 -1.6067
-0.5829 -0.4838 -1.5424
-0.6791 -0.4712 -1.6355
-0.7298 -0.4697 -1.6964
-0.7434 -0.4538 -1.7917
-0.6154 -0.4654 -1.5674
-0.7203 -0.4794 -1.7109
-0.7137 -0.4762 -1.8517
-0.3971 -0.5007 -1.6312
-0.5946 -0.4746 -1.5961
-0.5665 -0.4611 -1.6075
-0.4771 -0.4863 -1.6916
-0.6023 -0.4805 -1.6190
-0.6443 -0.4700 -1.9984
-0.4316 -0.4596 -1.5980
-0.4999 -0.4853 -1.7488
-0.5748 -0.4764 -1.8878
-0.5793 -0.4520 -1.6870
-0.9115 -0.5087 -1.7655
-0.8187 -0.4533 -1.4547
-0.3330 -0.4653 -1.6100
-0.6775 -0.4730 -1.7162
-0.4273 -0.4625 -1.7510
-0.5365 -0.4685 -1.9062
-0.6965 -0.4542 -1.8825
-0.8565 -0.4658 -1.6376
-0.8947 -0.4449 -1.7274
-0.9171 -0.4505 -1.7712
-0.4735 -0.4630 -1.5835
-0.5741 -0.4590 -1.9765
-0.9055 -0.4608 -1.7915
-0.6406 -0.4552 -1.5004
-0.8290 -0.4588 -1.8730
-0.6630 -0.4555 -1.5366
-0.8415 -0.4867 -1.8739
-0.8227 -0.4499 -1.9814
-0.5651 -0.4561 -1.8140
-0.7368 -0.4811 -1.6520
-0.7395 -0.4656 -1.8343
-0.6621 -0.4612 -1.6649
-0.8148 -0.4794 -1.8797
-0.7269 -0.4620 -1.8509
-0.6374 -0.4866 -1.5088
-0.6245 -0.4492 -1.7178
-0.5568 -0.4575 -1.5730
-0.4467 -0.4725 -1.5974
-0.6203 -0.4896 -1.7103
-0.5108 -0.4575 -1.5538
-0.4741 -0.4812 -1.7751
-0.4716 -0.4657 -1.9539
-0.5345 -0.4616 -1.6636
-0.6007 -0.4843 -1.7953
-0.6005 -0.4854 -1.7906
-0.5727 -0.4923 -1.7206
-0.5353 -0.4781 -1.5943
-0.4368 -0.4536 -1.7015
-0.5055 -0.4847 -1.8151
-0.4216 -0.4596 -1.6242
-0.5383 -0.4776 -1.6322
-0.5077 -0.4529 -1.7229
-0.4986 -0.4582 -1.7219
-0.5903 -0.4787 -1.8900
-0.4785 -0.4542 -1.6650
-0.4888 -0.4611 -1.7359
-0.4924 -0.4801 -1.5748
-0.4504 -0.4641 -1.6032
-0.5320 -0.4816 -1.7960
-0.5446 -0.4580 -2.0268
-0.5140 -0.4667 -1.9139
-0.5046 -0.4928 -1.8126
-0.4811 -0.4829 -1.6225
-0.4485 -0.4589 -1.6368
-0.5433 -0.4569 -2.0495
-0.5233 -0.4604 -1.9662
-0.5429 -0.4788 -1.8649
-0.4630 -0.4644 -1.7499
-1.0563 -0.4908 -1.9249
-0.9917 -0.5063 -1.9190
-0.6054 -0.4605 -1.7687
-0.4564 -0.4569 -1.5744
-0.6087 -0.4724 -2.0312
-0.5931 -0.4807 -2.0451
-0.4367 -0.4573 -1.6132
-0.4000 -0.4659 -1.5802
-0.6234 -0.4814 -1.5756
-0.6308 -0.4742 -1.6810
-0.5962 -0.4878 -1.7253
-0.6668 -0.4763 -1.5421
-0.6738 -0.4626 -1.5447
-0.5383 -0.4521 -1.9110
-0.4237 -0.4803 -1.5936
-0.5074 -0.4555 -1.6346
-0.9582 -0.4530 -1.8837
-0.4704 -0.5062 -1.7172
-0.7367 -0.4573 -1.5521
-0.5051 -0.4717 -1.7759
-0.7247 -0.4791 -1.5828
-0.4221 -0.4530 -1.6142
-0.7049 -0.4528 -1.5908
-0.6703 -0.4617 -1.5259
-0.6013 -0.4569 -1.5671
-0.5378 -0.4518 -1.6551
-0.6468 -0.4655 -1.5051
-0.4742 -0.4726 -1.6062
-0.7580 -0.4795 -1.6585
-0.5270 -0.4872 -1.8193
-0.4089 -0.4661 -1.6489
-0.4490 -0.4464 -1.6248
-0.7372 -0.4778 -1.7240
-0.6825 -0.4516 -1.7412
-0.7447 -0.4627 -1.8967
-0.4861 -0.4718 -1.8280
-0.4415 -0.4437 -1.5847
-0.5038 -0.4741 -1.6155
-0.5843 -0.4644 -1.6113
-0.6597 -0.5021 -2.0703
-0.5322 -0.4553 -1.8058
-0.5084 -0.4595 -1.5791
-0.5448 -0.4562 -1.6293
-0.5757 -0.4934 -1.6204
-0.5706 -0.4589 -1.7604
-0.6310 -0.4798 -1.7978
-0.5777 -0.4652 -1.7888
-0.6348 -0.4969 -1.6265
-0.4446 -0.4728 -1.6157
-0.6798 -0.4481 -1.6671
-0.5795 -0.4678 -2.0796
-0.6997 -0.4754 -1.5222
-0.5422 -0.4639 -1.6768
-0.5874 -0.4716 -2.0248
-0.4940 -0.4801 -1.5934
-0.5193 -0.5026 -1.7158
-0.4783 -0.4634 -1.8534
-0.4320 -0.4858 -1.5864
-0.4844 -0.4655 -1.5899
-0.5255 -0.4589 -1.6211
-0.8327 -0.4612 -1.5406
-0.7895 -0.4592 -1.5478
-0.6963 -0.4626 -1.5058
-0.5540 -0.4663 -1.6059
-0.5120 -0.4526 -1.6142
-0.4791 -0.4588 -1.6431
-0.6541 -0.4589 -1.5159
-0.3774 -0.4925 -1.6086
-0.3851 -0.4638 -1.6829
-0.4603 -0.4693 -1.7924
-0.5597 -0.4729 -1.8115
-0.4977 -0.4465 -1.7528
-0.6776 -0.4738 -1.5064
-0.7532 -0.4690 -1.8892
-0.6332 -0.4898 -1.5359
-0.6474 -0.4891 -1.5132
-0.8353 -0.4538 -1.8911
-0.4702 -0.4723 -1.6003
-0.5465 -0.4755 -1.7887
-0.5342 -0.4844 -1.6647
-0.6827 -0.4542 -2.0381
-0.5656 -0.4755 -1.6192
-0.5468 -0.4851 -2.0540
-0.4518 -0.4947 -1.7978
-0.4226 -0.4725 -1.6946
-0.5213 -0.4890 -1.7992
-0.4439 -0.4802 -1.5954
-0.3932 -0.4884 -1.6208
-0.5980 -0.4822 -1.7306
-0.5838 -0.4644 -1.8061
-0.6499 -0.4770 -1.7175
-0.4238 -0.4735 -1.6533
-0.5496 -0.4823 -1.5558
-0.7723 -0.4636 -1.6521
-0.4251 -0.5029 -1.7728
-0.7599 -0.4761 -1.8029
-0.7043 -0.4637 -1.8626
-0.4453 -0.4678 -1.7476
-0.7841 -0.4892 -1.5681
-0.7702 -0.4713 -1.7753
-0.8618 -0.4835 -1.8112
-0.6212 -0.4791 -1.6969
-0.4864 -0.4496 -1.7321
-0.5086 -0.4786 -1.6620
-0.6080 -0.4692 -1.9440
-0.5398 -0.4540 -1.7995
-0.4880 -0.4795 -1.6952
-0.4666 -0.4684 -1.7641
-0.4055 -0.4735 -1.6044
-0.5750 -0.4524 -1.8225
-0.6634 -0.4538 -1.5948
-0.5334 -0.4567 -1.6362
-0.4580 -0.4726 -1.6575
-0.7135 -0.4861 -1.6831
-0.4912 -0.5015 -1.6018
-0.7292 -0.4782 -1.5508
-0.6080 -0.4606 -1.8852
-0.4229 -0.4710 -2.0445
-0.4105 -0.4509 -1.6475
-0.5262 -0.4765 -1.5803
-0.7144 -0.4832 -1.5997
-0.3654 -0.4748 -1.6143
-0.7001 -0.4793 -1.9250
-0.6933 -0.4813 -1.6332
-0.4001 -0.4635 -1.6448
-0.6541 -0.4806 -1.6195
-0.6827 -0.4807 -1.7260
-0.4887 -0.4687 -1.8590
-0.5761 -0.4821 -1.7378
-0.4153 -0.4755 -1.6962
-0.4061 -0.4692 -1.7723
-0.5377 -0.4604 -1.6488
-0.3990 -0.4729 -1.6674
-0.4427 -0.5147 -1.8872
-1.0018 -0.5097 -1.9142
-0.7465 -0.4627 -1.6675
-0.7914 -0.4863 -1.7699
-0.8391 -0.4887 -1.8800
-0.7563 -0.4850 -1.8755
-0.4685 -0.4704 -1.5739
-0.5018 -0.4422 -1.9924
-0.5761 -0.4797 -1.9750
-0.6804 -0.4791 -1.9824
-0.5479 -0.4550 -1.9302
-0.7786 -0.4807 -1.9319
-0.3827 -0.4792 -1.8923
-0.6558 -0.4854 -1.5668
-0.3494 -0.4827 -1.6979
-0.3595 -0.4848 -1.8163
-0.3277 -0.4773 -1.6852
-0.3484 -0.4856 -1.6939
-0.4013 -0.4848 -1.8821
-0.6783 -0.4934 -1.5473
-0.8341 -0.4851 -1.8368
-0.3488 -0.4913 -1.6833
-0.3145 -0.4677 -1.6770
-0.4219 -0.4820 -1.7905
-0.7605 -0.4822 -1.6583
-0.6850 -0.4891 -1.5693
-0.3696 -0.4831 -1.7788
-0.3133 -0.4962 -1.7165
-0.7067 -0.4856 -1.8010
-0.3835 -0.4742 -1.9891
-0.7848 -0.4754 -1.9629
-0.7622 -0.4870 -1.7310
-0.4395 -0.4548 -2.0271
-0.3791 -0.4938 -1.7021
-0.3785 -0.4979 -1.7689
-0.6750 -0.4812 -1.9676
-0.7158 -0.4870 -1.6615
-0.6387 -0.4786 -1.5864
-0.9034 -0.4729 -1.8001
-0.7214 -0.4904 -1.5701
-0.7538 -0.5005 -1.6276
-0.7059 -0.4795 -1.6504
-0.6269 -0.4788 -1.8972
-0.4812 -0.4691 -1.6104
-0.7352 -0.4923 -1.8470
-0.6111 -0.4846 -1.8282
-0.5869 -0.4959 -1.6603
-0.4415 -0.4602 -1.6123
-0.6479 -0.4243 -1.8764
-0.7086 -0.4775 -1.5395
-0.3719 -0.4830 -1.8733
-0.4668 -0.4644 -2.0281
-0.4567 -0.5108 -2.1317
-0.4282 -0.4917 -1.6821
-0.5757 -0.4920 -1.5412
-0.6743 -0.4832 -1.7207
-0.5289 -0.4874 -1.7450
-0.7354 -0.4836 -1.5851
-0.4531 -0.4536 -1.9054
-0.4906 -0.4852 -1.7194
-0.6386 -0.4898 -1.6314
-0.6179 -0.5091 -1.6033
-0.3182 -0.5235 -1.6174
-0.4306 -0.4811 -1.5898
-0.6105 -0.4823 -1.6290
-0.5231 -0.4814 -1.6037
-0.3954 -0.4745 -1.6013
-0.6145 -0.4897 -1.5746
-0.4908 -0.4798 -1.5740
-0.7313 -0.5041 -1.6188
-0.7199 -0.4792 -1.6343
-0.6961 -0.4972 -1.5294
-0.8166 -0.4491 -1.8619
-0.2854 -0.5058 -1.7068
-0.7225 -0.4899 -1.5542
-0.5754 -0.4758 -1.9778
-0.3789 -0.4824 -2.0357
-0.4852 -0.4813 -1.6430
-0.5723 -0.4978 -1.6531
-0.5544 -0.4895 -1.7448
-0.7910 -0.4864 -1.9193
-0.8192 -0.4569 -1.9532
-0.5188 -0.4826 -2.0943
-0.7408 -0.4559 -1.9765
-0.4350 -0.4993 -1.5831
-0.5049 -0.4940 -1.5691
-0.5494 -0.4817 -1.5545
-0.7644 -0.4839 -1.8665
-0.6253 -0.4830 -1.5272
-0.6324 -0.4931 -1.5432
-0.3906 -0.4842 -1.7017
-0.3077 -0.4934 -1.6661
-0.5127 -0.4733 -1.5768
-0.6878 -0.4766 -1.6352
-0.7132 -0.4900 -1.6878
-0.4962 -0.4837 -1.6159
-0.7159 -0.4779 -1.8846
-0.7793 -0.4858 -1.5863
-0.5293 -0.4811 -1.7242
-0.5033 -0.5091 -1.6747
-0.4850 -0.4779 -1.7041
-0.3374 -0.4950 -1.7533
-0.4964 -0.4839 -1.6661
-0.7136 -0.4775 -1.4895
-0.6518 -0.4800 -1.7728
-0.5586 -0.4764 -1.8222
-0.7207 -0.4786 -1.7168
-0.7878 -0.4840 -1.8966
-0.6057 -0.4866 -1.5674
-0.8082 -0.4812 -1.6881
-0.7695 -0.5159 -1.8111
-0.5590 -0.4851 -1.6421
-0.7911 -0.4971 -1.6557
-0.5629 -0.4759 -1.9882
-0.7061 -0.4734 -1.9053
-0.5667 -0.4723 -1.6401
-0.4745 -0.4814 -1.8811
-0.6128 -0.5089 -1.5448
-0.5373 -0.5011 -1.6088
-0.4923 -0.4626 -1.7731
-0.3439 -0.5066 -1.7296
-0.7070 -0.4827 -1.6241
-0.7756 -0.4758 -1.7979
-0.3463 -0.4838 -1.8531
-0.8077 -0.4907 -1.9068
-0.7511 -0.4769 -1.8190
-0.4272 -0.4856 -1.6744
-0.6703 -0.4758 -1.7236
-0.6910 -0.4810 -1.5950
-0.4397 -0.4985 -1.5854
-0.7752 -0.4867 -1.5578
-0.8613 -0.4915 -1.7044
-0.5988 -0.4860 -1.5369
-0.7248 -0.4754 -1.4855
-0.7679 -0.4798 -1.6462
-0.7629 -0.4766 -1.7082
-0.5178 -0.4850 -1.6733
-0.6577 -0.4885 -1.5427
-0.5895 -0.4825 -1.7066
-0.7284 -0.4788 -1.6630
-0.4517 -0.4941 -1.6226
-0.6019 -0.4922 -1.6269
-0.6846 -0.4755 -1.5011
-0.7533 -0.4868 -1.5188
-0.4079 -0.4891 -1.6806
-0.5509 -0.5078 -1.5863
-0.5361 -0.4991 -1.5566

