0.5193 -1.4143 0.7663
0.5098 -0.7847 0.6376
0.6048 -1.0339 0.5855
0.0790 -1.4521 1.2880
0.8011 -1.4449 0.4480
-0.0304 -0.7061 0.0008
0.8015 -1.4612 0.3719
0.5853 -1.4365 1.0270
-0.1457 -1.4693 1.1733
-0.0969 -0.7537 0.1617
0.6385 -0.9044 0.6937
0.4661 -1.1988 0.6603
0.6647 -0.9473 0.7709
0.7994 -1.5314 0.3831
0.6210 -0.8050 0.6323
0.6670 -0.7728 0.7165
0.7366 -1.5560 0.9530
0.0331 -1.3514 -0.2061
0.5440 -1.4481 0.8152
-0.1069 -0.6663 -0.0112
0.1031 -0.8958 0.4705
0.9743 -1.4477 0.9041
-0.0380 -0.5348 0.0047
0.1137 -1.5043 1.3220
0.8591 -1.6277 0.4453
0.6117 -0.9203 0.6837
-0.1638 -0.7274 0.1083
0.0873 -1.4409 1.4161
-0.0737 -0.6288 -0.0546
-0.0307 -0.6640 -0.0144
0.2992 -1.4820 1.0364
0.1417 -0.9099 0.4064
0.0428 -0.6888 0.0194
-0.0405 -0.6667 0.0031
0.0182 -0.6548 -0.0063
0.0670 -1.6007 1.3041
0.0517 -0.6771 0.0098
-0.1093 -0.7370 0.1299
-0.1239 -0.7269 0.1100
-0.1309 -0.7224 0.2042
-0.0799 -0.6952 0.0668
-0.1319 -0.7041 0.1148
0.5717 -0.6657 0.6294
0.8756 -1.8280 2.1645
-0.0359 -0.5949 0.0647
0.2431 -1.5023 1.7148
0.2481 -1.3226 1.6267
0.0272 -0.8072 0.2309
-0.0355 -0.7348 0.0914
-0.0482 -0.7312 0.1292
-0.1188 -0.7369 0.0349
-0.1659 -0.7751 0.2288
-0.1841 -0.7426 0.2795
-0.3999 -1.4315 0.8321
-0.2497 -0.7594 0.1456
0.0957 -0.8532 0.4424
0.1658 -1.4712 1.5444
0.1719 -1.4950 1.8499
0.0192 -1.5105 1.2907
-0.2991 -1.4888 1.5228
0.3392 -1.2943 1.0298
0.0511 -1.5389 1.8196
-0.2880 -0.9262 0.0073
-0.2973 -0.6962 0.2288
-0.4224 -1.4318 1.5521
-0.3243 -0.8430 0.2944
-0.6790 -1.3748 1.3406
-0.7960 -1.4605 1.2484
-0.3582 -0.5800 0.2728
-0.3536 -0.5162 0.2918
-1.0890 -1.5670 2.1805
-0.3635 -0.4970 0.2906
-1.0497 -1.4872 1.7208
-0.4570 -0.8412 0.1640
-1.0128 -1.2119 1.6411
-1.0599 -1.4965 1.7384
0.0160 -1.4988 1.1866
-0.7889 -1.5732 2.3658
-0.8032 -1.6113 2.2058
-0.9490 -1.5433 1.9708
-0.9413 -1.2066 2.1769
0.0134 -1.4259 1.1500
-0.1459 -1.4710 1.4265
-0.4790 -1.4468 1.5873
-1.0776 -0.9869 1.3668
-1.0879 -1.5279 1.7527
-0.1890 -1.4306 1.1928
-0.3191 -1.5251 1.5390
-0.5657 -1.4893 1.9491
-1.2174 -1.5107 1.7202
-0.9182 -0.6908 1.4870
-1.0423 -1.4786 1.9075
-1.0924 -1.1991 0.4473
-0.9135 -1.4272 0.1434
-1.5099 -1.0281 0.9249
-1.3245 -0.5941 0.8667
-0.9832 -1.3743 0.1587
-0.9612 -1.3724 0.1068
-0.8906 -1.3747 0.0066
-1.1505 -1.5090 1.7110
-1.1629 -1.4744 1.6240
-0.8654 -1.3563 0.1431
-1.1374 -1.4263 1.3609
-1.2069 -1.2982 1.1804
-1.2154 -1.2464 1.0684
-1.3923 -0.6340 0.9171
-0.6405 -1.5171 1.0695
-0.7186 -1.4404 0.9270
-0.7996 -1.4090 0.6194
-0.4885 -1.3688 0.1396
-0.6338 -1.4282 0.2657
-0.9008 -1.3469 0.5382
-1.0705 -1.5311 0.7525
-0.6297 -1.2126 0.1961
-0.6526 -1.2946 0.2185
-0.7660 -1.4143 0.3285
-0.7562 -1.4535 0.3213
-0.7900 -1.4365 0.2949
-0.7609 -1.3791 0.2671
-0.6655 -1.1899 0.1576
-1.4211 -0.6104 0.9266
-0.5924 -1.3992 0.0522
-1.6862 -1.1962 1.0998
-1.0695 -1.3652 0.4827
-1.4425 -0.5949 0.8776
-1.5918 -0.6116 1.0097
-1.0377 -1.4307 0.3572
-0.8295 -1.3218 0.1625
-0.6922 -1.4548 -0.0003
-0.6695 -1.3528 -0.0440
-0.7349 -1.3757 -0.0240
-0.7615 -1.2420 -0.0027
-1.1665 -1.4120 0.3206
-1.0532 -1.5708 0.1599
-1.5791 -0.6565 0.7332
-0.8181 -1.4042 -0.0746
-1.0832 -1.4202 0.1101
-1.5636 -0.5930 0.6421
-1.3450 -1.2490 0.2809
-0.8593 -1.4086 -0.1569
-1.0415 -1.2736 0.0128
-1.2664 -1.4221 0.0769
-0.8308 -1.3826 0.2076
-0.5274 -1.4629 0.7079
-1.1747 -1.5975 1.2582
-0.7939 -1.3981 0.6112
-0.6554 -1.2727 0.4378
-0.7886 -1.5733 0.6562
-0.6295 -1.4043 0.1488
-1.1550 -1.4165 0.6754
-1.0599 -1.2476 0.4856
-1.4872 -0.5999 0.9363
-0.7031 -1.3194 0.0915
-1.6323 -0.6245 0.9751
-0.9076 -1.4333 0.0091
-0.8696 -1.3359 -0.0785
-1.5833 -0.6210 0.6398
-1.8268 -0.6691 0.7834
-1.1382 -1.3030 0.0628
-1.3466 -1.6448 1.6286
-0.8231 -1.2565 0.6834
-0.8200 -0.5665 0.3612
-0.6439 -1.5436 0.3777
-1.0518 -1.2899 0.5394
-0.6508 -1.4729 0.1579
-0.7468 -1.3468 0.0356
-1.2457 -1.4049 0.3952
-0.7454 -1.3582 -0.0590
-0.7953 -1.3515 -0.0322
-0.7729 -1.3384 -0.0470
-0.7639 -1.3042 -0.0782
-1.2989 -1.2485 0.2593
-1.7321 -0.7410 0.5973
-0.8118 -1.3943 -0.1036
-1.0077 -1.3731 -0.0853
-1.0886 -1.4915 -0.0234
-0.8530 -1.3272 -0.2179
-1.2714 -1.5571 -0.0296
-0.9410 -1.2926 -0.2511
-1.1821 -1.5298 -0.1882
-0.8442 -1.4247 0.1797
-1.3255 -0.6038 0.8801
-1.5873 -0.6334 1.0330
-1.3480 -1.6510 0.5638
-1.5902 -0.7969 0.3387
-1.3744 -1.2571 0.0546
-1.2297 -1.3480 -0.0517
-1.2723 -1.3345 -0.0740
-1.0656 -1.6440 -0.2613
-0.9568 -0.2291 0.2873
-1.8015 -0.7203 0.8726
-0.7427 -1.3667 -0.0366
-1.4051 -1.5489 0.1880
-0.0067 -0.6838 -0.0119
0.0007 -0.6186 -0.0571
-0.8193 -1.4819 2.3947
-1.8784 -1.0941 0.4043
-1.8121 -0.6792 0.4694
-1.4928 -1.3332 0.0657
-1.5128 -1.1644 0.0539
-1.9348 -1.3578 0.4669
-1.4178 -1.3781 -0.0221
-1.4286 -1.3045 -0.0100
-1.7010 -0.7126 0.5477
-1.4427 -1.4545 -0.0273
-0.8323 -1.2751 0.5013
-1.0823 -1.1988 0.6768
-1.5638 -1.1207 0.9727
-1.0145 -1.3354 0.5402
-0.9606 -1.4437 0.4833
-1.7022 -0.6948 0.7515
-1.0840 -1.4554 0.3620
-0.7465 -1.2459 0.0332
-0.9698 -1.1830 0.1589
-1.6045 -0.5298 0.5069
-0.8400 -0.6562 0.0528
-1.5601 -0.5726 0.4192
-1.1194 -1.3489 0.1365
-1.8050 -0.6889 0.5559
-1.3257 -1.6377 0.1843
-1.1444 -1.3424 0.0491
-1.4893 -1.4273 0.1865
-1.1502 -1.2793 -0.2098
-1.1564 -1.5102 -0.3362
-1.0240 -1.3925 -0.3881
-1.3838 -1.2518 -0.3157
-1.1082 -1.4288 -0.4450
-1.0357 -1.3325 -0.4542
-1.1249 -1.2992 -0.4228
-0.8204 -1.3409 0.1749
-1.2208 -1.3116 -0.1663
-1.1479 -1.4085 -0.2248
-1.0233 -1.5174 0.2815
-1.3606 -1.2912 0.2077
-1.0391 -1.2770 -0.0330
-0.9263 -1.2763 -0.1183
-1.3589 -1.5447 -0.0704
-1.4052 -1.3464 -0.1283
-1.1731 -1.2781 -0.3218
-1.0670 -1.4419 -0.4609
-1.6114 -0.5805 0.2811
0.0372 -0.7298 0.0428
0.0433 -0.7489 0.0555
-1.9091 -0.6242 0.5229
-1.7508 -1.3052 0.0073
-1.7542 -1.2702 -0.0167
-1.7933 -1.3273 -0.0329
-1.3802 -1.2959 -0.2812
-1.5862 -0.5619 0.1768
-1.6241 -0.5685 0.1901
-1.7887 -0.5817 0.3693
-1.8264 -1.3170 -0.0778
-2.1037 -1.4236 -0.1316
-1.0547 -1.2692 -0.1644
-1.2624 -0.3073 0.2307
-1.6518 -0.5796 0.6875
-1.4704 -0.5678 0.5554
-0.7526 -1.3162 0.2704
-0.7377 -1.2622 0.2407
-1.1801 -1.5793 -0.5384
-0.7527 -1.2899 0.2207
-0.7543 -1.5195 0.3714
-1.3768 -0.4697 0.4097
-1.6004 -0.5642 0.5092
-1.0438 -0.6885 0.1898
-0.9531 -1.3785 0.2498
-0.8051 -1.5780 0.1502
-0.8403 -1.3634 0.1081
-1.0474 -1.6486 0.2256
-1.1126 -1.6392 0.2475
-0.8403 -1.1910 0.0658
-1.0101 -0.1099 0.0417
-1.1161 -1.3351 0.1932
-0.8720 -1.2269 0.0401
-1.5719 -0.5696 0.3543
-1.3464 -1.3284 0.2545
-0.8282 -1.3547 -0.0107
-1.1608 -1.3511 -0.5475
-1.2044 -1.4137 0.0857
-1.0433 -1.3114 0.0267
-1.3175 -1.5433 -0.5479
-1.4826 -0.5645 0.6206
-1.2630 -1.3684 0.0518
-1.2051 -1.3784 0.0228
-0.8697 -1.3874 -0.1304
-0.9501 -1.2608 -0.1362
-0.9411 -1.3697 -0.1533
-1.1487 -1.3478 -0.4770
-1.0405 -1.5680 -0.1780
-1.0814 -1.3397 -0.4904
-1.2279 -1.3737 -0.1267
-0.9732 -1.3923 -0.2135
-1.0784 -1.2579 -0.4451
-1.1249 -1.6895 -0.2413
-1.0543 -1.4306 0.5999
-1.1248 -1.1849 -0.3816
-0.9999 -1.3728 -0.2711
-1.2087 -1.6685 -0.2519
-1.0863 -1.2113 -0.3711
-1.1920 -1.3799 -0.3970
-1.5962 -0.5285 0.6620
-1.5609 -0.5510 0.6462
-1.1308 -1.2938 0.4860
-0.8676 -1.3537 0.0074
-1.0240 -1.3250 -0.0581
-0.9825 -1.3655 -0.0767
-1.0589 -1.4863 -0.4030
0.2038 -1.6745 1.9077
-0.8750 -1.5086 2.3126
-1.8291 -0.5871 0.2874
-1.8790 -0.6296 0.2980
-1.8057 -0.5643 0.3309
-1.7433 -0.6005 0.7076
-1.9616 -1.4570 -0.5068
-1.9393 -1.3959 -0.5012
-1.8178 -0.5821 0.4413
-1.6395 -1.4449 -0.4952
-1.8952 -1.3695 -0.3961
-1.3422 -1.2970 -0.4226
-1.6457 -1.3651 -0.3917
-1.7660 -1.3122 -0.3894
-1.2975 -1.3019 -0.3850
-1.4528 -1.3610 -0.4586
-1.7622 -1.3010 -0.3652
-0.8344 -0.9580 0.1076
-0.6870 -1.3721 2.4997
-1.6430 -1.3966 2.0236
-1.7282 -0.5796 0.7858
-2.2550 -1.3235 -0.3484
-1.6546 -0.5751 0.5654
-1.8042 -1.0635 0.3032
-1.9720 -1.1920 0.3801
-1.7756 -0.5661 0.3156
-1.9485 -0.5934 0.3817
-1.8249 -0.5588 0.3508
-1.7384 -0.5542 0.5315
-1.8080 -0.6890 0.6799
-1.8202 -0.5322 0.6069
-1.6570 -0.5639 0.5408
-1.5019 -0.5760 0.4679
-1.6546 -0.6785 0.5320
-1.1639 -1.2034 -0.5383
-1.4807 -1.3117 -0.5518
-1.6370 -0.5514 0.3132
-1.2096 -1.3917 -0.4891
-1.1580 -1.2937 -0.4573
-1.5863 -0.5588 0.2375
-0.9087 -1.3503 -0.0792
-1.1423 -1.4705 -0.0421
-0.8461 -1.4295 0.3866
-1.6585 -1.3213 -0.0102
-1.0086 -1.2666 -0.2424
-1.0533 -1.5587 -0.2511
-1.2723 -1.3211 -0.0875
-1.6872 -0.6547 0.5838
-1.0742 -1.4205 0.2000
-0.8511 -0.3310 -0.0444
-1.8144 -0.5680 0.2989
-1.7236 -0.6275 0.2146
-0.9913 -0.0868 0.0284
-0.9684 -0.7769 0.0854
-1.3224 -0.3921 0.1798
-1.3750 -0.2504 0.1504
-1.0983 -1.4100 2.4966
-1.2878 -1.3789 0.5567
-2.0632 -0.6130 0.3911
-1.1993 -1.2677 0.4917
-1.6225 -0.5660 0.4586
-1.0736 -1.2303 0.2149
-1.6284 -1.4291 0.4172
-1.5534 -0.5493 0.2931
-1.7016 -0.5342 0.3096
-1.7681 -0.5148 0.3008
-1.0430 -0.8145 -0.3413
-0.9409 -1.2122 -0.0091
-1.6050 -1.2947 0.2061
-0.9969 -1.3216 -0.4361
-0.9327 -1.2982 -0.2398
-1.1710 -1.2484 0.3342
-0.8320 -1.2707 0.1653
-0.9157 -1.2475 -0.1122
-0.9660 -0.8222 0.2524
-2.0005 -1.2164 0.4502
-1.3870 -1.3112 -0.5387
-1.4906 -0.5467 0.3306
-1.6559 -0.5480 0.2480
-1.1120 -1.3069 -0.2049
-1.6094 -0.5650 0.2160
-1.0913 -1.2698 0.4385
-1.1557 -1.2767 0.0818
-0.8949 -1.2947 -0.1202
-1.0911 -1.2350 -0.1756
-1.0325 -1.2200 -0.2217
-0.9935 -1.2768 -0.2900
-1.0768 -1.0160 -0.3256
-1.2417 -1.2774 0.2237
-1.3606 -0.3229 0.1450
-0.8439 -0.7523 -0.0095
-0.8827 -0.2796 -0.1331
-1.7105 -0.6406 0.2927
-1.4868 -0.5502 0.4049
-1.5558 -1.2952 -0.5077
-1.7617 -1.1938 0.0146
-1.1747 -1.2943 -0.4863
-1.1661 -1.3546 -0.3228
-1.0588 -1.3138 -0.3571
-0.8270 -1.0592 0.1456
-0.8878 -0.6118 -0.2436
-0.9154 -1.0134 -0.3177
-2.1683 -1.2040 -0.3836
-0.8498 -1.2152 0.1076
-1.2591 -1.4967 -0.5607
-1.3217 -1.2734 -0.4315
-0.8665 -1.3458 -0.1409
-1.1161 -1.3383 -0.3718
-0.9815 -1.3028 -0.2467
-0.8549 -1.2551 -0.1159
-1.0034 -1.3871 -0.3713
-0.9299 -0.5639 -0.0067
-1.1240 -1.3602 -0.5793
-0.9750 -1.2001 -0.5468
-1.3255 -1.3159 -0.6335
-0.8683 -1.3644 0.0650
-1.6948 -0.5560 0.2735
-1.7352 -1.2075 -0.2942
-2.2469 -1.1084 -0.6692
-2.3327 -1.2400 -0.7422
-2.4984 -1.0321 -0.6333
-2.2592 -1.3079 -0.7318
-2.2849 -0.8730 -0.5447
-2.3493 -1.2377 -0.7014
-2.4281 -1.0590 -0.5953
-1.0663 -1.2830 -0.4581
-1.9391 -1.2809 -0.7167
-1.0034 -1.1865 -0.5218
-1.1916 -1.3003 -0.4845
-1.6190 -1.3047 -0.4010
-0.9873 -1.2843 -0.1720
-1.4543 -1.3362 0.2451
-1.5983 -1.2647 -0.6602
-1.4673 -1.4103 -0.4622
-2.1686 -1.1972 -0.3369
-2.3237 -0.9734 -0.7280
-1.5514 -1.2666 -0.7850
-1.0747 -1.2689 -0.7248
-2.2627 -0.9003 -0.6466
-1.9148 -1.2707 -0.7784
-2.3236 -1.0681 -0.7270
-1.6210 -0.5801 0.2003
-2.1428 -1.3313 -0.8139
-2.1079 -1.2168 -0.7394
-2.1828 -1.0976 -0.6863
-2.1215 -1.2389 -0.7022
-1.0503 -1.2004 -0.6052
-1.9477 -1.2930 -0.6739
-0.9284 -1.2572 -0.5147
-1.3429 -1.2868 -0.4697
-2.2335 -1.2325 -0.3529
-1.0064 -1.1343 -0.3086
-2.1646 -1.2692 -0.3073
-1.0540 -1.2458 -0.7059
-1.2042 -1.2745 -0.4378
-1.6456 -1.3961 -0.4988
-1.3709 -1.3122 0.0804
-1.2356 -1.3322 -0.0986
-1.3711 -1.2690 -0.2747
-1.0454 -1.2842 -0.5446
-2.3632 -0.9026 -0.4880
-2.2988 -1.1390 -0.6554
-2.1521 -1.3719 -0.7579
-1.6798 -1.1892 -0.6545
-1.9357 -1.3273 -0.7400
-2.3244 -1.1279 -0.7445
-1.9719 -1.3260 -0.8206
-1.0853 -1.2145 -0.6896
-1.6138 -1.2905 -0.7300
-2.2236 -0.8492 -0.7225
-0.9302 -1.2940 -0.6250
-1.1736 -1.3095 0.0609
-1.7687 -1.2550 -0.8502
-1.6798 -0.5876 -0.3400
-2.2724 -0.6634 -0.6269
-1.8042 -1.2543 0.0170
-1.5762 -1.2710 -0.8250
-1.1295 -0.9552 -0.1382
-0.8789 -1.3037 -0.2548
-1.0113 -1.2829 -0.2464
-0.9211 -1.2585 -0.2908
-1.0874 -1.2893 -0.2859
-1.0678 -1.2767 -0.4138
-1.0825 -1.2771 -0.3490
-0.9860 -1.2682 -0.3161
-1.7669 -1.2093 -0.3464
-1.4158 -1.2959 -0.3984
-1.5500 -1.3037 -0.7170
-1.3908 -1.2806 -0.4245
-1.2384 -1.2982 -0.4968
-0.9272 -1.2871 -0.1453
-1.2010 -1.2970 -0.5915
-1.6676 -0.5717 0.1918
-1.4374 -1.3820 0.1933
-0.8533 -1.2768 0.0133
-1.7960 -1.3738 0.0295
-1.7942 -1.3246 -0.1780
-2.0953 -1.2415 -0.3603
-1.7918 -1.3232 -0.8205
-1.5024 -1.2395 -0.7913
-1.1549 -0.1953 -0.1892
-1.1809 -0.8001 -0.5502
-1.6183 -0.5382 0.2269
-1.0703 -0.4024 -0.1643
-1.6445 -0.5312 0.2366
-2.4055 -1.2650 -0.6355
-2.2314 -1.2012 -0.3703
-2.2333 -1.2609 -0.3224
-2.2652 -1.2449 -0.7714
-2.2679 -0.8670 -0.5282
-2.1087 -1.3062 -0.7652
-2.3308 -0.8971 -0.5423
-1.7563 -1.2730 -0.0134
-1.5146 -1.2794 -0.5525
-1.7954 -1.2973 -0.7744
-1.3788 -1.2908 -0.6459
-1.4197 -1.3614 -0.6526
-2.1125 -1.3380 -0.3754
-1.6438 -1.2088 -0.5910
-1.2025 -1.3570 0.0644
-1.6745 -1.2484 -0.4361
-1.4108 -1.2965 -0.4594
-1.6433 -1.2784 -0.5928
-1.9761 -1.3042 -0.6182
-1.5389 -1.2496 -0.5206
-1.0555 -1.3010 -0.1869
-1.1535 -1.4194 -0.4987
-1.3680 -1.3786 0.1566
-1.0215 -1.2854 -0.0004
-0.9157 -1.3731 -0.1046
-1.0396 -1.2451 -0.1427
-1.0905 -1.2982 -0.2903
-0.9930 -1.2721 -0.3464
-1.3491 -1.2674 -0.4274
-1.7526 -1.3357 -0.4956
-2.2643 -0.9462 -0.6632
-1.6605 -0.6135 0.2769
-1.5775 -0.5598 0.2500
-1.6065 -0.5642 0.2379
-1.6145 -0.5560 0.2361
-1.6610 -0.5601 0.2354
-1.1021 -1.2935 -0.1810
-0.9656 -1.2205 -0.2187
-1.3201 -0.9104 -0.4360
-1.6764 -0.6089 -0.3236
-1.1543 -1.2821 -0.4982
-1.2004 -0.8027 -0.0537
-1.6969 -0.5564 0.2883
-1.6884 -0.5793 0.2897
-1.1141 -1.2794 -0.0117
-0.9625 -1.2386 -0.0630
-0.9330 -1.2520 -0.0690
-1.2774 -1.2079 -0.1157
-1.0105 -0.0875 0.0415
-1.8117 -0.6358 -0.3394
-2.0812 -1.3336 -0.8640
-1.3846 -1.3317 -0.6913
-1.5780 -1.3454 -0.0219
-1.4317 -1.3245 -0.0442
-1.1180 -1.2398 -0.5849
-1.7592 -1.2756 -0.0493
-2.4003 -1.3040 -0.7050
-1.1285 -1.2860 -0.5803
-1.3647 -1.3149 -0.5760
-2.2383 -1.1341 -0.5458
-1.1029 -1.2471 -0.5272
-1.2584 -1.3198 -0.5440
-1.4566 -1.3172 -0.5064
-1.3400 -1.2678 -0.4343
-2.2109 -1.1950 -0.3921
-1.3785 -1.2897 -0.4364
-0.9925 -1.3097 -0.4384
-1.6194 -1.2507 -0.1489
-0.9585 -1.2920 -0.2525
-1.5773 -0.5495 0.1709
-1.5511 -0.5108 0.2824
-1.4944 -0.4929 0.2604
-1.6569 -0.5002 0.3192
-1.5484 -0.5475 0.2782
-1.7142 -0.5250 0.3185
-1.5564 -0.5324 0.2663
-1.6596 -0.4827 0.2778
-1.6546 -0.5155 0.2828
-1.8046 -0.6035 0.3217
-1.6865 -0.5188 0.2506
-1.7423 -0.5207 0.2593
-1.7201 -0.5384 -0.2698
-1.6293 -0.5340 0.3136
-1.5679 -0.5228 0.2771
-0.9647 -0.2144 -0.0968
-1.7052 -0.5404 0.2427
-1.2720 -1.4016 0.2312
-1.6665 -0.5015 -0.2641
-1.0433 -1.2607 0.3015
-1.5903 -0.5395 0.3189
-2.3631 -1.2391 -0.7569
-1.5769 -1.3439 -0.6700
-1.7139 -1.3682 -0.6756
-2.0061 -1.3288 -0.6107
-1.5947 -1.2698 0.1993
-1.3533 -1.3311 -0.6244
-1.2179 -1.3231 -0.5816
-1.5906 -1.3068 -0.5920
-1.9938 -1.3460 -0.6102
-1.1243 -0.8831 -0.0960
-1.1367 -1.2982 -0.6391
-1.7818 -1.2802 -0.0688
-1.9359 -1.2572 -0.1180
-1.4077 -1.3125 -0.3279
-1.7594 -1.4234 -0.4375
-1.1060 -1.2468 -0.4895
-1.7644 -0.5641 0.3169
-1.5402 -0.5204 0.1727
-0.9796 -1.2558 -0.2431
-1.9507 -0.8565 -0.4347
-1.9498 -1.3227 -0.6525
-0.9895 -1.2184 0.2968
-1.0600 -1.3598 -0.3763
-0.9518 -1.2823 -0.1632
-0.9740 -0.9760 -0.1545
-1.1307 -1.2910 0.0395
-1.3733 -1.2894 -0.0342
-1.1541 -1.3264 0.1075
-1.3061 -1.2364 0.2583
-1.1753 -1.1073 0.2526
-1.1557 -1.3729 -0.5520
-1.3061 -1.3725 0.0835
-0.9924 -1.2632 0.1680
-1.1162 -1.3603 0.1360
-0.9310 -1.2796 -0.2386
-1.0040 -1.2656 -0.1563
-1.2506 -1.5690 0.0745
-1.4082 -1.2567 -0.0043
-1.4346 -1.1849 -0.0365
-1.5581 -1.3153 -0.2695
-1.4048 -1.4282 -0.4910
-1.6486 -0.6066 0.3002
-1.7801 -0.6142 0.3251
-1.2813 -0.7010 0.1562
-0.9498 -1.1643 -0.1097
-0.9040 -1.4490 -0.1465
-1.3500 -1.2395 0.2897
-1.4764 -1.3364 -0.3393
-1.6119 -1.3511 -0.0343
-1.1647 -1.2180 -0.3263
-1.1420 -1.3337 -0.4063
-1.2131 -1.5516 0.1173
-1.0180 -1.4436 0.1481
-1.1301 -1.2584 0.4596
-1.5380 -0.5120 0.1797
-1.7659 -1.2819 -0.1697
-1.3913 -1.4089 -0.2525
-1.7822 -1.3120 -0.0268
-1.3662 -1.2786 0.4978
-1.5601 -0.6196 0.4512
-1.0218 -0.6563 -0.0952
-1.6200 -0.5456 0.3810
-0.8354 -1.1524 0.1968
-1.5608 -1.4045 0.2232
-1.0229 -1.2545 -0.1573
-1.1759 -1.4892 -0.2493
-1.0698 -1.3343 0.5279
-0.9140 -1.2999 -0.1023
-1.4960 -0.5579 0.4602
-1.0521 -1.2843 0.5429
-0.8141 -1.1103 0.3472
-1.4903 -0.5437 0.3802
-0.8085 -1.1628 0.3295
-1.8357 -0.6961 0.4251
-1.2195 -1.2485 0.0502
-0.8907 -1.0248 -0.1554
-1.6114 -0.5569 0.4969
-1.6701 -0.5915 0.4569
-1.1734 -1.2966 0.4090
-1.5918 -1.3831 -0.0446
-1.1675 -1.2918 0.5913
-1.3763 -1.2135 0.1602
-1.0998 -1.3024 0.7598
-1.5889 -0.5314 0.5491
-1.6047 -0.5071 0.2121
-1.5446 -0.5975 0.3646
-1.4898 -0.5446 0.4345
-1.6134 -0.5949 0.4575
-1.4986 -0.5257 0.3906
-1.5743 -0.6062 0.5714
-1.5728 -0.5061 0.2957
-1.4396 -0.4848 0.5414
-0.8244 -1.1791 0.5845
-1.5456 -0.5823 0.5807
-1.5098 -1.3521 0.2211
-1.6755 -0.6054 0.2413
-1.5887 -0.5426 0.2120
-1.3137 -1.2095 0.2312
-1.4764 -0.4858 0.5284
-1.1059 -1.3476 0.1935
-1.0008 -1.2234 0.5481
-1.2528 -1.3783 0.4765
-1.1488 -1.1516 0.7784
-1.3056 -1.2268 0.7376
-1.0181 -1.2442 0.5330
-1.6608 -0.5574 0.3277
-1.6863 -0.5694 0.2826
-1.1117 -1.2573 0.0717
-1.4300 -0.4986 0.5856
-1.5382 -0.5622 0.2976
-1.6927 -0.5641 0.4569
-1.6416 -0.5401 0.5233
-1.7024 -0.5910 0.5716
-1.6323 -0.5521 0.5646
-1.1668 -1.2881 0.9015
-1.6580 -0.5399 0.5742
-1.6258 -0.5861 0.2846
-0.8309 -1.2652 0.5819
-0.9651 -1.3138 0.8554
-1.7259 -0.6464 0.4910
-1.1168 -1.2502 0.8839
-1.5662 -0.5464 0.6672
-1.1615 -1.2222 0.0297
-1.6219 -0.5632 0.2884
-1.1579 -1.2648 0.0783
-1.1021 -1.2735 0.1292
-0.9658 -1.2353 0.7435
-1.4535 -0.5812 0.6709
-1.6322 -0.5909 0.5472
-1.6644 -0.5679 0.4280
-1.3371 -1.4103 0.8098
-1.5409 -0.5680 0.8058
-1.6116 -0.4848 0.8109
-1.3883 -0.5637 0.6971
-1.5575 -0.5636 0.7941
-1.4110 -0.5994 0.1439
-1.6677 -0.4899 0.8223
-1.6465 -0.5204 0.8106
-1.8533 -0.5510 0.3475
-1.4509 -0.5687 0.7129
-1.8361 -0.6151 0.3415
-1.7423 -0.5184 0.8287
-1.7194 -0.5113 0.7779
-1.5396 -0.5328 0.4498
-1.8187 -0.6240 0.5800
-1.7922 -0.5373 0.6855
-1.4351 -0.5398 0.5779
-1.0919 -1.2300 0.6849
-1.0787 -1.2927 0.7477
-0.9883 -0.5300 0.3199
-1.7871 -0.5512 0.6188
-1.7108 -0.5024 0.5358
-1.9185 -0.6613 0.8962
-1.7742 -0.5787 0.3502
-1.4237 -0.5419 0.7377
-1.3974 -0.5444 0.7081
-1.6193 -0.5910 0.4933
-1.2833 -1.2374 0.1277
-1.1504 -1.2911 1.1091
-1.1615 -1.2622 0.8875
-1.7085 -0.4955 0.8465
-1.5774 -0.6252 0.7398
-1.8911 -0.5365 0.6527
-2.0291 -0.6342 0.6823
-1.8320 -0.5604 0.4999
-2.2201 -0.7074 0.5814
-1.9806 -0.5352 0.4316
-1.8747 -0.6765 0.3131
-1.8040 -0.5332 0.3664
-1.9234 -0.5566 0.3546
-1.2560 -0.3980 0.7158
-1.6892 -0.5517 0.8870
-1.4782 -0.5119 0.4423
-1.5408 -0.5424 0.4064
-0.8740 -1.0421 -0.1882
-1.5730 -0.5747 0.5203
-1.7096 -0.4740 0.4375
-1.3830 -0.5769 0.7771
-1.4143 -0.5570 0.7783
-1.5327 -0.5494 0.7830
-1.5601 -0.5578 0.7800
-1.4476 -0.5498 0.6889
-1.3896 -0.5676 0.6297
-1.8812 -0.6333 0.8724
-1.8185 -0.5641 0.7591
-1.8755 -0.5250 0.6037
-1.9534 -0.5596 0.6238
-1.7209 -0.5380 0.5325
-1.8579 -0.5774 0.4999
-1.9006 -0.5654 0.3563
-1.7052 -0.5276 0.2578
-1.6516 -0.5829 0.8390
-1.9430 -0.5617 0.5143
-2.0202 -0.5125 0.3972
-1.4425 -0.4743 0.7007
-1.7216 -0.5762 0.8548
-1.5555 -0.5454 0.4509
-1.6607 -0.5461 0.5867
-1.8088 -0.5648 0.5571
-1.7653 -0.5029 0.6062
-1.7613 -0.5470 0.5863
-1.7182 -0.5557 0.7290
-1.7237 -0.5455 0.3120
-1.9477 -0.5730 0.3718
-1.9657 -0.5929 0.6905
-1.3718 -0.5259 0.6090
-1.0460 -0.5418 0.1797
-1.8557 -0.6037 0.9518
-1.7910 -0.5764 0.8971
-1.5260 -0.4195 0.6818
-2.0070 -0.5452 0.4315

