0.2816 -1.1791 -0.0787
-0.2963 -1.2130 0.0916
-0.2745 -1.1518 0.0480
-0.2479 -1.1639 0.0695
-0.4253 -1.2857 0.6397
-0.2439 -1.0686 0.2207
-0.2202 -1.2534 0.2043
-0.0216 -1.2485 0.4139
0.3959 -1.0546 0.2903
0.4546 -1.2683 0.3012
0.3761 -1.1152 0.2449
0.1661 -1.2287 0.9233
0.3572 -1.2147 0.1229
0.3434 -1.1693 1.2555
0.4139 -1.2228 0.5542
-0.6026 -0.9721 1.1980
-0.0467 -1.1438 1.5752
-0.2390 -1.2232 0.0401
-0.5803 -1.1736 1.2458
-0.5582 -0.8703 0.9152
-0.4039 -1.2445 0.1788
0.1560 -1.1376 0.0119
0.0419 -1.1821 -0.0507
-0.1995 -1.1809 0.0486
-0.3770 -1.2037 0.7991
-0.1557 -1.2850 0.7499
-0.4075 -1.1832 0.5855
0.2914 -1.1993 1.2767
-0.7502 -1.2175 0.7954
-0.4578 -1.1852 0.1628
0.3297 -1.2905 0.4063
-0.4178 -1.1438 0.1505
0.1819 -1.2155 0.5169
0.1263 -1.1461 -0.0159
0.0816 -1.2438 -0.0430
-0.2011 -1.1983 0.0715
-0.0709 -1.2166 0.1289
-0.0511 -1.2345 1.1302
-0.4934 -1.1717 0.5182
-0.6259 -1.2801 0.6652
-0.2438 -1.2368 0.0740
0.3972 -1.1212 0.2933
0.3062 -1.2583 1.2659
0.0446 -1.1776 -0.1125
0.1549 -1.2700 -0.1087
0.3077 -1.1718 -0.0342
-0.8645 -1.1879 0.8905
-0.9057 -1.2448 0.9186
-0.4371 -1.1944 -0.1001
-0.4064 -1.1609 -0.0679
-0.1565 -1.2530 0.0885
0.3698 -1.2595 0.9813
-0.6211 -1.1726 0.2985
-0.0960 -1.1620 0.3189
-0.5968 -1.1584 0.1648
-0.4089 -1.2060 0.7968
0.2435 -1.2930 0.1188
-0.5936 -1.1721 0.3065
-0.6555 -0.9727 0.9073
-0.8466 -1.1783 0.9677
0.4165 -1.1442 0.2762
0.1755 -1.1313 1.2923
-0.1402 -1.1633 0.1595
-0.1200 -1.2174 0.4265
0.0658 -1.1318 -0.0925
-0.2034 -1.2059 0.6826
-0.2257 -0.5762 0.1462
-0.4252 -1.2110 -0.2409
-0.6881 -1.1426 0.4871
0.1044 -1.3212 0.6783
-0.5102 -1.1935 0.6002
-0.5636 -1.1667 0.3754
-0.1843 -1.0770 0.3473
0.1159 -1.2384 0.6680
0.1340 -0.4563 0.0661
-0.3745 -1.1734 -0.0484
-0.2017 -1.1728 -0.0443
-0.4731 -1.0435 0.0780
-0.4736 -1.2184 0.3188
0.3471 -1.1800 0.1409
-0.0512 -0.2044 0.0742
0.0523 -0.1752 0.1399
0.1050 -0.1568 0.0932
0.0135 -0.1612 0.0590
-0.2218 -1.2032 0.1156
0.0096 -1.3033 0.2556
-0.0883 -0.4464 0.1738
0.0609 -0.0424 0.1360
0.0549 -0.0676 0.1274
0.0543 -0.9621 -0.1216
-0.1733 -1.1300 -0.0834
-0.6623 -1.2561 0.7230
-0.2479 -1.2068 0.2520
-0.0087 -0.0579 0.1922
-0.0600 -0.1205 0.2359
-0.0564 -0.1223 0.2431
0.0005 -0.0450 0.1755
-0.4358 -1.3798 0.9073
-0.3042 -1.3405 0.4820
-0.5258 -1.0096 0.3649
-0.2325 -0.6411 0.1768
-0.1307 -0.4408 0.0991
-0.1510 -0.3800 0.2600
0.1162 -1.2054 0.5630
-0.5268 -1.2993 0.6291
-0.6444 -1.1882 0.2887
-0.5149 -1.1949 0.1757
-0.4851 -1.1851 0.1856
-0.2305 -1.1583 0.1968
-0.1636 -1.3112 0.4709
-0.7717 -1.2380 0.5028
0.2017 -1.4390 0.5518
-0.0129 -1.3474 0.9737
-0.4927 -1.0074 0.5628
0.0707 -1.0795 0.7793
-0.4759 -0.5766 1.0561
-0.6297 -0.8706 0.9689
-0.8238 -1.1359 0.8851
-0.6967 -0.5828 0.9959
-0.1125 -0.0851 0.3038
-0.0163 -0.0478 0.1469
-0.1540 -0.2273 0.2178
-0.0867 -0.8821 1.3054
0.2252 -1.1792 1.2830
-0.4294 -1.3241 0.9153
-0.3991 -1.1806 0.7949
-0.5034 -1.3260 0.8545
-0.8621 -1.2079 0.9194
-0.0632 -0.5443 1.3369
-0.1472 -0.5437 1.3120
-0.0197 -0.5464 1.3529
-0.7337 -0.5959 1.0045
-0.7452 -0.5966 1.0332
-0.6348 -0.5451 1.0285
-0.7371 -0.5848 1.1043
-0.6676 -0.5570 1.1301
-0.6519 -0.5861 1.0171
-0.5481 -0.5419 1.0119
-0.6209 -0.5559 1.1437
-0.6324 -0.5962 1.1017
-0.5520 -0.5463 1.0967
-0.0193 -0.4981 1.1451
-0.3802 -0.5331 1.0800
-0.2614 -0.5331 1.0901
-0.1594 -0.5152 1.2586
-0.1763 -0.5546 1.1809
-0.1772 -0.5892 1.2002
-0.1246 -0.5942 1.3303
-0.1371 -0.5436 1.1202
-0.2265 -0.5694 1.1837
-0.2511 -0.4706 1.3537
-0.2399 -0.5553 1.0997
-0.1329 -0.5543 1.1955
-0.1067 -0.5807 1.2124
-0.0171 -0.5548 1.2089
-0.6444 -0.5438 1.1453
-0.9537 -1.2383 0.8953
0.2405 -1.1443 1.2931
0.0544 -1.2222 1.1190
0.1002 -1.2617 1.1650
-0.0971 -1.3179 1.2058
-0.0096 0.1748 0.1784
-0.1042 -1.2988 0.8404
-0.2880 -0.5553 1.1469
-0.7108 -0.5898 1.0316
-0.0020 0.2546 0.1800
0.0005 0.2135 0.2238
-0.0569 0.1724 0.3048
0.0027 0.2155 0.2254
0.0106 0.2411 0.2235
-0.0769 0.0954 0.3634
-0.0438 0.1924 0.2456
-0.0052 0.1931 0.1835
-0.0215 0.2152 0.2445
-0.0102 0.1055 0.3672
-0.0149 0.2001 0.2421
-0.0320 0.2108 0.2321
-0.0321 0.1939 0.1963
-0.0173 0.0843 0.4043
-0.0005 0.2421 0.1953
-0.0026 0.2615 0.1836
-0.0464 0.1806 0.2629
-0.0440 0.1969 0.2426
-0.0477 0.1062 0.2622
-0.0114 0.2418 0.2378
0.0043 0.2577 0.1930
-0.4536 -0.5825 1.0894
0.1962 -1.2223 1.3418
-0.7105 -0.5810 1.0106
-0.5346 -0.5641 1.0593
-0.0632 -0.5555 1.2235
-0.7293 -0.5746 0.9954
-0.6976 -0.5654 0.9962
-0.2603 -0.5785 1.1698
-0.3355 -0.5624 1.1367
-0.4575 -0.5755 1.1062
-0.0109 0.2537 0.2043
-0.4730 -0.5816 1.1377
-0.0138 -0.5637 1.2247
-0.6216 -0.5478 1.0325
-0.4942 -0.5278 1.2238
-0.7281 -0.5625 1.0109
-0.1953 -0.5732 1.1972
-0.6914 -1.2140 0.6702
-0.6056 -0.5837 1.0853
-0.4268 -0.5828 1.1571
-0.0447 0.2490 0.2400
-0.0847 -0.5825 1.2390
-0.7671 -0.5932 1.0633
-0.6846 -0.5683 1.0338
-0.2748 -0.5912 1.2050
-0.3716 -0.5066 1.0501
-0.4485 -1.1757 0.5858
-0.6141 -0.5885 1.4099
-0.6252 -0.5772 1.3332
-0.3698 -0.5776 1.4889
-0.0628 -0.5897 1.3152
-0.0815 -0.5752 1.2872
-0.1036 -0.5787 1.2828
-0.1187 -0.5916 1.2664
-0.2340 -0.5810 1.2341
-0.2637 -0.5441 1.1742
-0.7134 -0.5687 0.9676
-0.7459 -0.5615 1.0604
-0.1250 -1.2295 0.8250
-0.3651 -0.5646 1.4921
-0.0606 -0.5668 1.2921
-0.1937 -0.5936 1.2677
-0.1843 -0.5938 1.2436
-0.7442 -0.5740 1.1050
-0.0418 -0.5629 1.2401
-0.6993 -0.5456 1.0277
-0.4771 -0.5676 1.0884
-0.6148 -0.5670 1.0598
-0.1409 -0.5935 1.2601
-0.0632 -0.5863 1.2515
-0.1184 -0.5603 1.3638
-0.0230 -0.5699 1.2555
-0.2329 -0.5465 1.1515
-0.4958 -0.5616 1.0954
-0.3723 -0.5710 1.1528
-0.4035 -0.5797 1.0947
-0.4795 -0.5592 1.0433
-0.0866 -0.5704 1.2322
-0.0953 -0.5692 1.2547
-0.6567 -0.5732 1.0201
-0.5818 -0.5706 1.1024
-0.4167 -0.5494 1.1388
-0.2296 -0.5660 1.1493
-0.0354 -0.5694 1.2217
-0.4204 -0.5492 1.0818
0.2478 -1.1946 1.2819
0.2229 -1.1723 1.2926
-0.7686 -0.5880 1.1485
-0.1784 -0.5705 1.2810
-0.4357 -0.5597 1.1169
-0.2044 -0.5707 1.2172
-0.7644 -0.5701 1.1526
-0.4730 -0.5568 1.0718
-0.5959 -0.5848 1.0569
-0.4202 -0.5746 1.1398
-0.5987 -0.5760 1.0742
-0.6731 -0.5749 1.0544
-0.6373 -0.5786 1.0340
-0.5948 -0.5634 1.4045
-0.7362 -0.5797 1.0742

