0.4846 -1.4172 0.5537
0.6117 -0.3841 0.3416
0.6042 -0.3768 0.3572
0.5928 -0.5125 0.3375
0.5794 -0.7551 0.3873
0.5542 -0.9154 0.4007
1.9115 -1.2035 0.5749
1.4837 -0.8297 0.0565
4.4295 -4.1005 0.5136
1.5415 -0.9278 0.4580
2.6010 -2.0074 0.9809
3.2590 -2.6788 0.9028
2.6453 -1.4861 0.1157
3.0135 -1.8169 1.1447
1.9031 -0.9668 0.8746
4.3451 -3.3891 -0.2212
2.7884 -1.5033 0.1489
4.6037 -4.5756 0.9849
2.9630 -3.0562 1.2112
1.8557 -1.8933 0.9855
2.1892 -2.2534 0.1828
2.7381 -2.6378 1.2448
1.7200 -1.2985 0.8589
4.5601 -2.6501 0.6046
2.8666 -2.3476 1.4610
2.3946 -2.3572 1.3505
2.0158 -1.6141 1.1690
9.5976 -7.7321 3.6663
6.0138 -4.8833 2.0282
5.8826 -4.0783 1.2117
3.4949 -2.8878 0.9350
3.6619 -3.0103 2.0260
3.3163 -2.2428 0.5001
5.0665 -2.5198 1.6793
2.6589 -1.9627 1.0110
11.5926 -10.8154 5.2334
12.2676 -10.9145 6.1751
6.9792 -7.2070 4.0829
8.2305 -8.1865 5.0103
11.7045 -9.3754 3.7835
14.7446 -11.6671 5.8909
14.4950 -10.0571 2.7416
17.7197 -15.5026 7.6816
6.7835 -6.3259 4.5084
33.9983 -13.7191 -0.6244
12.1857 -8.5462 2.8666
23.7823 -15.9472 3.8519
15.6436 -11.3845 4.1777
11.5042 -10.2659 3.6542
7.8161 -7.0466 4.6352
22.9690 -21.9890 10.9249
7.1340 -6.8511 4.8894
6.6049 -6.5822 4.5589
8.0810 -7.9143 5.6933
22.8610 -9.4090 -0.1420
11.1772 -8.9179 7.0838
27.8733 -13.5870 2.1220
39.4701 -27.5936 14.6212
44.9063 -25.4577 2.5090
11.1053 -8.5389 1.4111
12.4950 -9.3669 1.7030
13.0497 -9.6332 2.3404
15.4129 -11.6924 3.9831
10.6420 -9.1553 4.4347
9.7812 -8.8599 4.7861
10.8942 -11.1150 8.0131
7.0368 -7.4615 5.5865
6.6681 -7.3604 5.3561
17.1852 -13.0064 0.6301
8.0035 -8.5132 6.6038
32.1781 -14.8762 2.0725
23.5970 -18.1260 5.9231
20.3971 -20.6760 11.3354
7.4428 -8.3117 6.1230
7.3618 -8.2427 6.3370
25.1320 -16.3236 -1.7522
14.1826 -10.9348 5.2528
9.6708 -9.9242 6.8145
8.2712 -9.0934 -2.6254
18.1703 -12.8537 -2.2094
10.6521 -16.7886 -3.4132
23.9593 -14.4432 1.7557
34.7369 -21.5694 4.5366
17.9731 -13.6244 5.1721
21.5701 -16.2921 6.2877
22.7548 -18.8259 6.5210
19.8300 -16.2288 8.4586
12.5331 -11.5453 6.5493
15.1637 -19.2614 8.7800
15.4178 -17.7746 12.1643
12.8467 -15.5216 10.5500
17.6666 -31.1764 17.1976
11.2821 -8.2510 0.2376
16.5715 -10.5722 1.9382
10.7118 -13.8819 6.2453
7.1377 -10.0375 6.3590
8.8404 -8.2704 3.5008
35.1111 -22.4379 0.2747
38.5448 -23.0125 3.0755
27.6940 -20.2018 6.0501
13.1459 -13.7766 1.4477
19.0047 -18.2068 6.6509
16.1684 -16.8869 8.8143
13.2934 -15.5272 7.1977
16.4807 -20.8688 9.2715
12.4146 -15.7312 9.5672
15.9326 -17.8671 12.4994
29.3313 -12.7634 4.6832
10.9631 -20.3206 9.0642
20.2817 -8.4053 -0.7812
29.4718 -19.6209 -0.4974
10.3595 -13.9807 -4.7380
21.0379 -16.6311 0.3880
27.7111 -19.2115 2.4356
26.9379 -19.4703 2.7320
38.9601 -25.7554 6.0144
20.5446 -17.2135 1.1835
19.3493 -15.5742 2.7103
17.6476 -13.5397 6.6676
21.2614 -16.8325 4.0837
26.2725 -21.6470 4.2959
6.6345 -16.8980 -5.4445
22.6494 -20.8139 5.0597
22.2729 -19.1317 8.3220
18.2433 -19.7417 8.0520
5.1193 -19.0695 -0.8552
20.1571 -22.9539 12.8389
5.7720 -20.9968 0.9688
13.9904 -18.4925 10.6573
1.9827 -20.2348 -1.8756
17.4260 -21.3497 13.4877
14.0097 -18.0323 11.8975
13.1551 -18.5897 10.7540
12.0942 -18.2317 10.0480
2.9599 -22.0088 0.6525
21.0495 -16.6324 -1.1398
24.8277 -23.4348 11.8071
13.4040 -19.0728 6.2920
14.9566 -17.8445 12.3199
6.9512 -12.2704 9.1372
11.0002 -8.4125 2.9968
11.0957 -7.8760 2.0232
9.3645 -8.0237 3.6752
1.6617 -21.7665 -2.4361
16.2799 -16.8790 -9.1714
38.9732 -23.6980 1.5496
13.4732 -19.2235 -8.3042
19.9298 -18.7341 2.8201
16.8620 -18.4688 0.9408
11.0768 -17.8806 -3.0992
27.9677 -23.2252 10.0096
25.0790 -23.1912 10.2769
5.3218 -20.9963 -3.1719
22.8234 -24.2844 12.3849
18.1122 -22.2445 11.0282
10.8824 -20.3118 6.6639
4.2005 -21.9758 -0.5813
6.9265 -23.3933 2.2782
13.2978 -20.6225 11.6085
11.6269 -11.1586 3.7913
32.3032 -23.6044 7.6827
16.3835 -16.2348 3.2201
12.4322 -20.4989 10.2033
11.0137 -9.1151 2.3968
8.0543 -8.1205 3.9690
5.6516 -6.9470 4.0777
53.8794 -24.4075 7.7673
22.0539 -14.6517 -2.3062
35.5814 -21.5145 -0.1734
15.0214 -19.9607 -7.6492
18.7295 -13.6421 6.5861
27.7798 -21.7532 2.3477
29.1677 -26.2645 9.7801
26.3644 -23.3595 11.0884
21.2287 -22.2807 7.6105
24.2633 -24.2062 9.7595
6.0214 -20.6796 -3.8792
34.5417 -20.3944 -0.6211
15.7143 -16.0498 -7.6936
35.9461 -21.1640 0.5787
23.0504 -18.1689 0.8226
17.2748 -18.9086 2.7741
15.6215 -18.9532 6.1063
10.1267 -17.5773 9.5890
8.1389 -14.9692 8.8189
19.8131 -13.8868 -2.5663
44.4648 -26.0301 3.7667
27.1943 -18.1901 -0.6657
33.1577 -21.7396 1.6017
17.7065 -13.2929 6.1355
30.3701 -23.6942 5.7899
32.8759 -28.5727 7.6917
21.6226 -19.0586 1.7912
8.0494 -15.8889 -2.0953
3.7434 -12.9559 2.6752
9.9322 -16.5268 -5.9260
15.7460 -19.2224 5.1990
10.4899 -10.8748 5.9849
13.2036 -17.0614 6.1550
19.0324 -20.3248 7.2828
13.1737 -19.7574 7.3226
16.1334 -19.2447 11.1367
9.9318 -10.6556 8.1756
10.3007 -9.5007 1.5029
11.7603 -16.2780 8.6926
16.6663 -21.3550 12.5842
23.2492 -15.1510 3.6122
14.3759 -17.1317 4.2374
25.2052 -18.8295 5.2598
15.7696 -16.3637 7.1341
16.7071 -18.8755 7.3208
15.2436 -16.2913 9.7484
13.8417 -15.4037 3.2381
13.6063 -15.3124 4.0084
5.9282 -15.6673 -5.0377
17.0447 -15.0633 3.5746
18.8838 -19.3778 5.5736
18.4708 -22.4420 12.8847
20.4407 -14.6060 3.9863
16.4900 -15.7343 5.5282
14.1776 -15.7015 5.5843
14.9465 -18.7040 10.9931
13.3528 -18.6470 10.1348
13.6151 -13.5275 2.0395
11.8156 -15.6357 5.0611
38.8087 -25.1982 4.1526
23.8694 -18.0349 6.9801
31.2468 -26.9891 6.5393
20.5300 -17.1660 0.4457
24.7981 -20.3340 2.1256
35.3206 -27.0911 6.3126
16.9207 -18.5942 3.6832
19.6334 -22.7353 4.3579
22.0222 -20.3852 10.4571
13.1535 -18.1452 4.2015
16.7761 -11.6805 -2.0380
14.5512 -15.5373 1.2760
22.1966 -14.5493 -2.2889
28.4845 -20.6944 0.3259
4.0672 -17.2511 -3.5354
2.6882 -19.7954 -0.2546
23.9525 -15.4441 0.0924
11.5609 -18.2046 7.1257
10.3550 -14.4778 -7.9472
32.7662 -19.7154 -1.2391
33.6861 -24.1110 3.6376
24.2269 -22.9079 6.9939
29.1326 -28.4906 9.8714
24.0699 -26.4138 10.3005
21.8586 -26.5124 11.2211
18.2904 -24.1410 10.1297
17.5048 -23.9535 13.8328
31.5183 -21.3574 3.0086
24.4972 -19.5230 1.0276
12.4721 -13.9383 1.7639
24.7020 -21.3064 3.3193
17.0155 -17.2133 1.0571
21.0445 -19.6299 4.5227
12.8536 -15.6693 1.4954
25.8312 -25.3229 5.4845
18.0675 -19.6302 4.9890
14.3759 -17.8158 3.0138
20.3416 -24.0738 5.3931
11.5015 -16.8477 3.7306
17.5980 -21.8491 7.2004
14.2951 -22.0037 5.7131
10.3862 -17.2014 4.9209
24.6312 -28.6394 14.3091
14.5520 -21.3235 8.4740
8.6570 -19.2466 8.2786
7.3629 -17.6065 7.7721
14.1299 -13.8991 -6.6290
15.7576 -15.5143 -8.6727
15.6657 -15.9221 -8.5567
13.0056 -14.2143 -6.2679
10.1590 -17.4233 -6.0216
12.4431 -16.0753 2.2675
32.2157 -28.3770 9.7457
33.1857 -32.3045 11.0037
24.1927 -26.0440 8.0558
20.4610 -28.6587 13.0999
13.9035 -24.3956 14.2847
19.7966 -35.1786 19.1000
12.9610 -41.0320 15.8202
32.3192 -25.4520 5.0942
30.5640 -25.5636 5.2566
86.1661 -96.3423 -12.3814
33.4047 -30.9792 10.1290
29.0322 -28.0332 8.9272
28.1091 -30.8740 11.4471
20.4766 -25.6802 9.0972
16.9089 -24.6159 9.3791
18.2023 -28.1706 11.2978
9.2390 -20.5209 4.9789
15.2176 -25.1805 11.4112
14.4870 -26.8387 10.3501
16.1465 -27.9230 12.4769
8.3654 -19.9023 6.7367
10.0874 -21.9629 9.3093
14.0799 -41.6581 15.6515
33.7893 -23.5266 5.5512
12.9856 -13.3958 1.8040
23.1967 -18.8314 4.3578
31.1879 -30.9495 12.3833
20.5169 -17.2577 4.2410
64.2308 -53.4352 2.4948
117.6293 -133.8506 2.5410
26.2864 -23.6188 8.9574
30.9651 -23.6706 7.6026
113.1095 -74.4038 -22.7357
26.4829 -20.0649 5.6844
20.8148 -17.9991 5.2761
97.3511 -74.8561 -3.7390
25.4824 -21.4731 6.7579
19.3456 -18.9517 3.5902
27.9397 -24.3708 7.2815
83.4874 -85.3291 6.4185
34.3668 -30.0233 8.5589
134.1165 -86.3844 -19.0829
26.4258 -23.6029 5.5442
108.4126 -119.9322 -3.1128
23.1044 -20.7804 2.3582
10.3732 -11.7699 6.2112
15.6679 -12.5855 6.9069
9.0177 -14.2829 11.6695
19.6425 -18.9744 1.3968
11.7884 -11.6617 4.3932
13.3029 -12.8601 9.9901
22.1677 -14.0931 5.4639
20.6762 -13.8609 5.6704
20.8147 -14.0541 6.9788
12.7878 -11.2734 1.0980
11.8598 -12.3708 7.9919
8.8496 -11.3656 5.8141
8.9565 -12.3296 8.0314
10.8535 -12.5854 11.5022
8.1089 -12.0060 8.5450
21.7357 -17.3756 1.7459
21.3357 -24.1163 8.6516
10.2679 -16.8775 4.2748
9.7864 -16.4184 4.7010
11.7778 -15.7805 2.6231
12.1524 -16.3015 3.7220
12.4188 -17.3278 5.5072
19.1291 -26.0849 10.8982
14.6907 -24.0021 9.3722
16.4179 -26.1129 12.6802
14.3128 -19.7130 3.1276
17.1152 -18.3749 1.2420
27.4504 -20.0611 1.7781
25.7736 -19.4430 0.8554
22.0533 -24.0157 5.1179
20.2847 -24.8373 7.7623
12.6520 -26.6753 15.1760
19.6179 -18.4278 2.4650
17.7645 -15.4364 1.2426
19.0692 -16.9136 2.2190
24.6152 -25.9029 6.0661
13.8361 -27.0025 12.5436
20.8116 -20.6862 7.1753
12.9671 -12.7483 2.5070
21.2765 -17.0688 2.6384
21.5239 -16.6769 4.0837
10.5488 -14.3206 4.2933
26.7262 -27.1324 10.2355
17.4147 -21.9189 8.5827
27.9660 -26.0953 10.8764
18.3819 -19.1036 6.4021
15.8176 -18.7925 6.0280
15.2339 -21.2034 9.0196
15.0470 -23.9709 10.7431
13.4529 -23.5664 10.5922
35.0879 -22.0063 4.8124
25.0974 -18.5380 3.4859
27.6014 -19.6111 3.5431
18.2621 -16.1627 2.4402
26.3605 -21.1558 4.8385
22.4922 -20.0248 5.1048
21.5551 -21.5069 6.4772
20.4359 -21.9905 7.1810
11.9255 -20.4490 6.3915
29.4102 -34.2676 13.7671
21.6837 -26.8889 11.6568
34.1589 -24.7916 7.7052
45.7262 -31.0227 2.0786
43.0404 -35.9279 5.0399
26.2960 -28.6009 5.2896
25.1367 -28.9718 6.3469
14.0489 -15.5086 1.5399
39.7060 -37.0459 -5.7708
37.8402 -41.1846 -10.3039
32.1419 -42.6082 -3.0473
23.3169 -27.2216 2.9306
15.7109 -21.8586 3.5731
60.2820 -85.8460 -23.7898
23.4621 -42.6386 -0.5634
60.8035 -106.8071 -17.2721
51.2256 -104.2668 -15.7963
17.7852 -35.5778 7.9509
25.2590 -41.7204 17.6236
20.5325 -19.3809 -5.4725
14.2591 -21.7074 -3.1985
17.5366 -24.0288 -3.1882
13.6904 -28.4201 0.6344
7.8430 -29.9434 2.3460
7.6193 -30.1438 2.5767
5.8393 -31.6067 4.3249
26.7195 -54.2235 -30.9105
11.8963 -25.6904 -0.9814
19.0934 -24.9548 -2.8027
17.4557 -24.5829 -2.7880
19.8216 -20.5676 -4.9570
22.7620 -20.7893 -5.9776
11.3679 -23.6831 -1.7933
15.3073 -19.2492 -4.1384
25.1397 -20.3784 -6.1202
23.5388 -22.7850 -4.8511
19.4321 -21.9341 -4.3670
16.4152 -21.9358 -3.6641
18.6519 -21.4203 -4.2899
15.9742 -19.7035 -4.2138
32.8501 -22.8653 -5.5573
24.8321 -24.0282 -6.8197
30.3182 -29.1915 -0.9392
26.0574 -35.1618 -4.9736
27.0618 -28.8338 0.0345
29.5151 -35.6488 -0.1725
11.2998 -23.3451 -1.5278
37.6863 -50.2348 4.0222
70.7791 -107.9612 -18.5979
22.3976 -33.8851 1.7121
60.9087 -110.1437 -10.7656
19.9650 -35.7940 5.8916
20.5226 -38.8218 8.9473
58.2425 -129.8876 16.1077
17.4886 -38.9142 11.0524
57.6425 -134.5361 26.6086
26.2721 -85.1171 11.7261
16.6294 -26.2032 -2.2477
33.5886 -102.7640 -10.3214
10.8216 -41.5020 5.6008
8.6014 -50.6609 5.9225
32.0136 -23.3658 5.1953
8.7272 -19.4223 9.1223
35.6236 -27.7698 7.3171
17.3818 -22.0680 4.1248
16.8015 -39.8309 14.1189
25.1561 -26.9529 6.8835
12.7548 -21.4793 4.7660
13.1252 -23.0584 6.8996
15.1343 -20.1272 5.6842
12.9743 -22.2928 5.8086
11.0138 -19.6053 7.2303
6.7249 -18.7982 7.8825
47.8235 -63.1480 31.6870
42.4703 -34.2759 -7.8864
45.8518 -35.8039 -5.5699
79.4301 -61.2370 -6.8174
55.9009 -48.1555 0.5057
133.9139 -121.5662 -17.0576
104.0623 -110.4973 -8.6309
10.1827 -22.7492 7.0728
7.8760 -23.3304 9.4624
120.5709 -67.7419 -17.7814
93.2789 -74.3519 -21.0447
95.0367 -86.8862 -20.2197
34.9487 -45.8830 -9.0421
67.9281 -72.1856 -12.1062
70.4598 -82.7668 0.2674
35.4011 -56.1260 -5.5252
26.2513 -33.0317 -10.9888
73.3471 -62.5793 -21.9114
69.5708 -66.4698 -23.5860
76.4254 -76.6997 -24.1411
57.1943 -68.8429 -24.7970
74.7073 -84.1456 -27.2067
66.4361 -87.8864 15.1124
41.8764 -42.3225 -32.5273
37.0176 -52.8061 -19.3907
89.7385 -109.4921 -0.6274
48.3765 -45.4559 -28.7968
74.5033 -52.1870 -29.0513
65.3389 -51.0510 -26.1625
30.5342 -43.3275 -30.2916
66.3243 -83.0334 -22.8414
52.3597 -88.6167 -16.7967
90.0840 -127.4946 2.8960
45.5995 -53.2996 -29.0496
10.2274 -53.3574 -17.7108
4.9368 -24.2042 14.4147
110.1220 -78.3556 -23.4432
61.0624 -123.8207 21.7540
48.0229 -66.1679 -28.6876
30.9158 -83.8405 -22.0646
11.8208 -90.6488 -25.2056
30.9257 -113.0938 -10.0583
12.9894 -98.9999 -21.3670
32.0615 -121.4003 -4.9910
25.1270 -70.0500 -30.5720
20.3252 -79.2947 -29.2224
33.3126 -53.9258 -29.0092
39.6523 -54.5889 -29.3297
13.6175 -80.8434 -29.3125
52.0487 -68.5248 -28.3317
37.1383 -34.2650 -24.8816
33.2083 -44.9893 -28.8307
77.8668 -58.9526 -21.0686
43.0001 -84.4658 -27.2605
46.3586 -131.9449 4.1777
48.3709 -49.7899 -25.4332
33.9276 -44.1228 -24.4620
28.4589 -60.2803 -30.5051
31.3929 -69.8143 -30.6331
25.5029 -71.7540 -32.0132
20.3630 -80.4304 -29.7471
45.6104 -118.1002 -11.7338
64.6584 -120.6019 -6.3547
87.0223 -98.4055 -20.8936
87.4718 -73.6034 -12.5062
96.1328 -132.3364 -7.1792
73.8136 -143.9253 7.5282
24.5204 -56.7075 -29.5924
54.2395 -79.2612 -25.3300
22.2495 -73.6047 -29.1445
12.1340 -81.5961 -26.4840
0.9241 -95.8886 -26.1205
5.1681 -95.9722 -22.5432
40.1598 -76.3435 -28.9766
22.9073 -96.8712 -24.3889
10.1696 -109.9479 -15.1481
22.7527 -56.3712 -30.6912
51.1125 -44.3355 -21.6008
49.1346 -53.2189 -21.1474
54.7450 -66.5101 -22.8910
51.9064 -71.6048 -21.7326
38.5655 -67.8716 -31.4012
8.5404 -86.1831 -11.0845
111.5970 -88.6908 -11.8030
75.8893 -81.0340 -17.2339
72.3088 -98.7493 -15.5339
68.9490 -111.8326 -12.1150
104.0396 -153.9808 5.1631
44.7708 -108.0355 -20.7123
32.2116 -59.1889 -27.8808
17.6722 -83.0987 -25.5608
40.4173 -79.5725 -22.7919
13.1945 -94.3198 -22.4359
43.2093 -31.6221 3.3451
59.9421 -38.7353 5.8698
34.8864 -124.6156 5.3425
27.4051 -124.0400 -2.1086
38.3169 -40.5358 -20.8940
19.0968 -118.5920 -10.9839
31.2123 -28.4115 0.5567
47.2679 -43.6830 -6.8982
19.0160 -25.5239 -5.8551
13.8275 -40.0623 -2.5616
16.4352 -39.8693 -1.9103
19.2441 -37.8430 -4.2528
92.8318 -64.5136 -5.1194
68.6427 -79.9190 -11.9221
115.6901 -115.6536 -0.9475
86.5731 -101.6775 -4.7892
88.2726 -114.6859 -10.3893
85.0494 -131.2154 -7.4961
45.5754 -126.3874 -1.9452
35.1627 -95.9146 -7.6424
5.7726 -98.0243 -15.6450
5.0239 -97.7669 -13.9481
6.5740 -96.0864 -10.9496
56.1349 -60.8748 2.5381
7.2256 -77.9519 -19.1523
26.7332 -28.4642 -5.2370
32.7282 -47.2785 -10.8067
16.9394 -102.0658 -21.9678
9.8250 -98.1723 -9.8430
34.2383 -27.6294 19.6290
29.9002 -40.7792 -4.3134
46.7189 -53.6969 10.9477
25.4362 -26.3525 5.8753
27.3655 -29.2520 5.3473
16.8054 -39.6964 -5.6631
57.5457 -84.1421 14.6646
70.4748 -64.5911 8.7030
42.8419 -66.6330 -19.4121
50.5457 -99.5219 -28.9950
26.0765 -60.5588 -6.2116
14.0118 -49.4694 -7.4037
31.9689 -59.1289 22.1164
15.2039 -56.4454 12.5893
50.6941 -99.9559 -21.2681
101.4787 -127.6930 3.4024
70.7752 -98.3489 18.0115
98.0175 -141.2207 16.0556
69.7853 -117.1148 10.8793
30.7319 -79.7206 8.0061
57.9254 -105.8246 6.7792
39.8088 -40.8133 11.7694
30.0368 -42.0415 -5.8898
45.3643 -28.4586 22.0414
36.9712 -43.0599 -3.3408
27.7295 -85.7160 -11.3221
3.7055 -81.3959 -15.4454
56.6278 -120.4689 -6.1578
58.3330 -134.6750 21.1164
17.5395 -108.0086 -13.9535
29.1651 -104.8905 -16.9066
8.7377 -94.4820 -22.7107
40.6846 -116.8817 -10.8794
31.5326 -49.3349 -30.3016
28.8283 -61.2401 -30.6589
21.1092 -84.9236 -24.6854
30.3634 -29.8362 22.4482
0.0802 -0.4713 0.2124
0.0901 -0.5673 0.2186
8.0047 -20.6921 34.9651
23.5575 -42.5644 -2.1659
56.8356 -105.2442 -22.6619
24.2222 -32.7738 5.6058
103.7072 -169.2889 -30.9921
85.0054 -213.0386 -22.6352
36.2665 -75.8401 -45.9174
20.0426 -94.8303 -51.0777
-0.1186 -0.4830 0.1741
-15.3054 -92.0943 -44.0722
45.0809 -38.7457 27.2527
44.6797 -41.5536 21.4273
55.0425 -55.2196 19.9118
7.1338 -109.9760 -42.3696
0.3780 -0.5673 0.0828
0.4281 -0.5708 0.0525
0.2738 -0.5434 0.4420
0.0388 -0.5465 0.3112
0.0638 -0.6220 0.2703
0.3992 -0.5960 0.0300
-0.1033 -0.5335 0.2305
0.0463 -0.5847 0.1275
-0.0860 -0.5440 0.3139
0.1934 -0.5309 0.2880
-0.2264 -0.5495 0.1382
0.2270 -0.5180 0.2917
0.4488 -0.6614 0.5929
0.3308 -0.5938 0.0008
-0.2711 -0.5924 0.2538
0.0982 -0.5159 0.4140
-0.0007 -0.0046 -0.0123
-0.0428 -0.5203 0.1733
-0.0707 -0.5321 0.2428
0.3722 -0.5654 0.0611
0.0465 -0.5260 -0.0310
0.1235 -0.5327 0.2696
-0.2803 -0.5189 0.1611
0.1419 -0.6091 0.3836
0.4164 -0.5098 0.3817
0.1871 -0.5371 0.1312
0.0885 -0.7110 0.0082
0.4234 -0.5649 0.0219
0.0184 0.0008 0.0004
0.1292 -0.5118 0.2979
-0.0608 -0.5315 0.2270
0.0980 -0.6024 0.3669
-0.1430 -0.5047 0.2115
0.3676 -0.5420 0.3848
-0.0752 -0.5648 0.1330
-0.0365 -0.5434 0.2872
-0.0718 -0.5811 -0.0879
0.0641 -0.5264 0.4084
0.2301 -0.6144 0.4127
0.1407 -0.6113 0.3846
0.0070 -0.0524 -0.0022
-0.0020 -0.0527 -0.0046
0.4486 -0.5382 0.2247
0.2662 -0.5676 0.1946
-0.0423 -0.1176 -0.0002
0.4459 -0.5317 0.3603
0.1221 -0.3709 0.3262
0.0202 -0.0673 0.0893
-0.0070 -0.0528 0.0119
-0.0960 -0.5443 0.0876
-0.0007 -0.5584 0.1513
-0.0166 -0.5176 0.2170
0.1071 -0.5523 0.4355
0.3193 -0.5493 0.0921
0.0794 -0.0728 0.0599
0.2769 -0.5504 0.3121
-0.3488 -1.0978 0.1832
-0.2335 -0.5420 0.1400
0.1614 -0.5162 0.4748
0.3757 -0.5581 0.2535
-0.0682 -0.1978 0.1234
0.3383 -0.5026 0.5471
0.1946 -0.4537 0.4743
-0.0515 -0.5128 -0.0666
0.0551 -0.0823 0.0363
0.1699 -0.5296 0.2060
-0.0092 -0.5229 0.3316
-0.0168 -0.5291 -0.1138
-0.0493 -0.5303 -0.1224
-0.0260 -0.5383 -0.0817
0.2611 -0.5224 0.1176
0.2869 -0.5183 0.1608
0.3076 -0.5099 0.2025
0.2787 -0.5325 0.2345
-0.0887 -0.5395 0.0496
0.0355 -0.4770 0.2514
-0.0551 -0.5265 0.2096
-0.0537 -0.5305 0.2290
-0.3125 -0.6086 0.1423
-0.0475 -0.5225 0.3205
-0.2326 -0.5601 0.2491
-0.2278 -0.5174 0.2120
0.1861 -0.5114 0.5214
-0.2363 -0.5300 0.2412
0.2278 -0.5374 0.5995
-0.0547 -0.0989 0.0826
-0.0202 -0.1038 0.1060
0.1853 -0.5301 0.1361
-0.0058 -0.1035 0.1098
-0.0195 -0.5374 0.2519
0.0663 -0.5113 0.1997
0.0257 -0.5276 0.1934
-0.0021 -0.5151 0.1819
0.0356 -0.5523 0.4985
-0.1107 -0.5206 0.2621
0.0937 -0.5167 0.2877
0.0497 -0.4980 0.2578
0.1312 -0.4588 0.4582
0.2294 -0.5734 0.1921
0.1781 -0.4852 0.2406
0.2101 -0.4876 0.2771
-0.0586 -0.5536 0.3684
0.4383 -0.4966 0.1708
0.0522 -0.5305 -0.0292
0.4048 -0.4963 0.1894
-0.0462 -0.4864 -0.0488
0.4106 -0.4857 0.2234
-0.0556 -0.4874 -0.0162
-0.0119 -0.5527 0.0627
0.3497 -0.4956 0.3355
0.3039 -0.5117 0.3448
0.0609 -0.5245 0.2023
-0.2130 -0.5597 0.1725
-0.3908 -0.9633 0.2246
-0.0755 -0.5336 0.2774
0.2520 -0.5459 0.5253
-0.2121 -0.5230 0.1932
-0.1915 -0.5034 0.2050
-0.2435 -0.5337 0.2336
-0.2156 -0.5000 0.2575
-0.0676 -0.5253 0.3986
-0.2467 -0.5236 0.2860
-0.0410 -0.1042 0.1280
-0.2501 -0.5034 0.2788
-0.0499 -0.5319 0.0572
0.0242 -0.5216 0.2287
0.0424 -0.5164 0.1212
-0.0643 -0.5143 0.2343
0.2772 -0.5263 0.1405
0.1995 -0.4721 0.1114
0.3644 -0.5100 0.2227
0.3552 -0.4941 0.2699
0.3349 -0.5263 0.3043
0.2060 -0.4976 0.3906
0.1632 -0.4909 0.3623
0.2654 -0.5716 0.6332
0.2166 -0.5575 0.6553
-0.0509 -0.5293 0.0563
0.0290 -0.5360 0.1912
-0.0681 -0.5124 0.1273
-0.1167 -0.5375 0.1594
0.1233 -0.5275 0.3438
0.1592 -0.5491 0.4050
0.1348 -0.5491 0.4858
-0.0317 -0.5403 0.4129
0.0284 -0.5273 -0.0494
-0.0155 -0.5294 -0.0646
0.0479 -0.5408 -0.0267
-0.0345 -0.5185 -0.0603
0.2456 -0.5233 0.1871
0.1878 -0.5446 0.1728
0.2111 -0.4854 0.2512
0.1601 -0.5197 0.2382
-0.0964 -0.4796 0.1104
0.0163 -0.5201 0.2272
-0.0592 -0.5136 0.2217
-0.1032 -0.5510 0.2277
-0.2801 -0.5590 0.1045
0.1716 -0.5137 0.7049
-0.0902 -0.5394 0.1642
0.0335 -0.5004 0.2576
-0.0437 -0.5352 0.2846
0.0917 -0.5524 0.2123
-0.1130 -0.4955 0.1497
0.1004 -0.4274 0.2034
0.0573 -0.5185 0.2378
-0.0669 -0.5115 0.2367
0.0192 -0.5386 0.3828
-0.0812 -0.5558 0.4531
0.0848 -0.5697 0.0081
0.4933 -0.8076 0.2422
0.0061 -0.5471 -0.0048
0.1605 -0.5458 0.1271
0.0577 -0.5582 0.0856
-0.0341 -0.1014 0.0992
0.2174 -0.5433 0.3299
0.0519 -0.5397 0.2542
-0.2264 -0.5595 0.2730
-0.1189 -0.5433 0.4342
-0.2558 -0.5517 0.3433
-0.2521 -0.5234 0.3400
0.1042 -0.5540 0.2992
0.1679 -0.5545 0.2840
0.1296 -0.5308 0.4746
0.0372 -0.5398 0.3491
0.3570 -0.5260 0.2433
0.1382 -0.5216 0.2823
-0.0504 -0.0904 0.1356
-0.0835 -0.6073 0.0050
0.0578 -0.1806 0.1685
0.2025 -0.5380 0.3729
-0.0097 -0.5589 0.3424
-0.0094 -0.0133 0.0144
0.1307 -0.5322 0.6212
0.0231 -0.5505 0.5825
0.0858 -0.5417 0.5066
0.1093 -0.5388 0.5590
0.2949 -0.6175 0.3733
0.1856 -0.5520 0.4604
0.2633 -0.5476 0.1924
0.0164 -0.5659 0.1080
-0.0758 -0.4888 0.0459
-0.0635 -0.5681 0.0912
0.0663 -0.5410 0.2041
-0.0053 -0.5538 0.1832
-0.1192 -0.5668 0.1505
-0.1514 -0.4318 0.1267
-0.1458 -0.5245 0.2500
0.1667 -0.4132 0.5226
-0.0672 -0.5140 0.1263
-0.1146 -0.5747 0.1252
0.3140 -0.5060 0.3663
-0.2376 -1.0277 -0.2043
0.2600 -0.6029 0.6078
0.2866 -0.5453 0.3337
0.3128 -0.5711 0.3746
0.0393 -0.5441 0.3098
0.1170 -0.4857 0.2230
0.2348 -0.5503 0.4300
-0.0923 -0.2595 0.1376
0.2563 -0.5198 0.4980
0.2865 -0.5424 0.0458
0.0869 -0.5664 0.5230
-0.0808 -0.4345 0.0860
-0.0250 -0.0181 0.1470
-0.1351 -0.5206 0.2178
0.0410 -0.5459 0.1562
-0.1425 -0.5659 0.2194
-0.1500 -0.5509 0.1067
-0.1835 -0.5361 0.3873
0.3001 -0.5525 0.2033
-0.1911 -0.5312 0.4049
-0.0624 -0.5554 0.5486
0.1320 -0.5546 0.3535
-0.0358 -0.0837 0.1634
-0.0781 -0.1769 0.1994
0.1871 -0.4689 0.1776
0.1005 -0.4644 0.2524
0.2146 -0.4777 0.2183
0.0292 -0.4766 0.2383
-0.0468 -0.0449 0.1695
-0.0582 -0.4816 0.2093
0.1381 -0.4815 0.1277
0.0610 -0.4879 0.0552
-0.0428 -0.0202 0.1801
-0.0319 -0.0454 0.1940
-0.0585 -0.0515 0.1785
-0.0394 -0.0509 0.1770
-0.0406 -0.0312 0.1829
0.2072 -0.4946 0.2844
-0.1470 -0.4900 0.2082
0.1727 -0.4873 0.3450
0.0024 -0.5168 0.5540
0.1510 -0.4834 0.4167
0.0054 -0.4500 0.4516
-0.1131 -0.4378 0.1888
-0.0152 -0.4980 0.3163
-0.0116 -0.4622 0.4154
0.4232 -0.4690 0.3333
-0.0581 -0.4463 0.1223
0.4276 -0.4657 0.3929
0.3962 -0.4555 0.4495
0.3190 -0.4712 0.5749
0.0012 -0.4711 0.2409
0.1202 -0.4656 0.3606
0.0275 -0.4866 0.2896
-0.0410 -0.4862 0.2656
0.2391 -0.4154 0.1213
0.2202 -0.4557 0.1499
0.3386 -0.4280 0.3487
0.3608 -0.4779 0.4494
0.0879 -0.0039 0.1665
0.3713 -0.4782 0.5939
0.1481 -0.4694 0.1979
0.1319 -0.4111 0.1822
0.4291 -0.5164 0.4519
0.1032 -0.4814 -0.0875
0.1210 -0.4744 -0.0435
0.1499 -0.4646 -0.0341
0.3247 -0.4845 0.0966
0.1095 -0.4614 0.2803
-0.0728 -0.4710 0.2499
0.1396 -0.4661 -0.0035
0.4251 -0.4573 0.0356
0.4034 -0.5174 0.0132
0.3817 -0.5573 0.1868
0.2254 -0.4510 0.2526
0.1736 -0.4050 0.2523
0.1067 -0.0153 0.1573
0.1701 -0.4513 0.0025
0.0611 -0.5126 0.0578
0.1331 -0.3398 0.2801
0.1265 -0.4785 0.1597
0.1843 -0.4814 0.0729
0.1673 -0.4812 0.1372
0.1432 -0.4670 0.2938
0.0493 -0.4936 -0.0218
0.2872 -0.4251 0.2241
0.1995 -0.4605 -0.0891
0.2023 -0.4524 0.0105
0.1044 -0.4264 0.0037
0.1227 -0.4477 0.1589
0.0172 -0.4553 0.0770
-0.0643 -0.4609 0.2176
0.2239 -0.4965 -0.0253
-0.0926 -0.4659 0.2067
-0.1367 -0.4750 0.2312
-0.0783 -0.4430 0.2727
0.1429 -0.4365 0.5340
0.2033 -0.4516 0.2112
0.0441 -0.4521 -0.0098
0.0345 -0.4680 0.2480
0.2432 -0.4662 0.0890
0.1466 -0.4562 0.0632
0.1238 -0.4728 0.3633
-0.0291 -0.4610 0.2255
-0.0611 -0.3886 0.1994
0.0109 -0.3136 0.2244
-0.0411 -0.4493 0.0573
-0.0216 -0.4501 0.0978
-0.0017 -0.4442 0.1364
-0.0409 -0.4819 0.1638
-0.0205 -0.4339 0.1918
-0.0578 -0.4696 0.3250
0.3100 -0.5324 -0.0136
0.0337 -0.4384 0.0188
0.1473 -0.4740 0.1953
0.1603 -0.4411 0.2264
-0.0018 -0.4875 0.0396
0.1876 -0.4793 0.3881
0.0666 -0.4256 -0.1162
-0.0108 -0.4012 -0.0715
0.4260 -0.4309 -0.0224
-0.0586 -0.4287 0.2069
0.0335 -0.4406 0.0196
0.1893 -0.4005 0.4124
0.0243 -0.1199 0.0779

