0.2910 -0.6096 0.0587
0.0576 -0.5638 0.2112
0.1028 -0.5912 0.1826
0.0915 -0.5643 0.1326
0.1904 -0.5786 0.1453
0.3982 -0.5908 0.1490
0.3958 -0.5701 0.0693
0.3150 -0.5751 0.0216
0.3212 -0.5871 0.0456
0.4551 -0.5958 0.1289
0.0332 -0.3562 0.1854
0.4115 -0.5709 0.2936
0.2757 -0.5760 0.0643
-0.0644 -0.5744 0.0541
0.0511 -0.5823 0.3061
0.0123 -0.5987 0.1840
0.0622 -0.5848 0.3241
0.1557 -0.5896 -0.0988
0.3438 -0.5753 0.0284
0.3323 -0.5767 0.2930
0.0640 -0.5875 0.2285
0.0408 -0.5901 0.0511
0.2849 -0.5762 0.2470
0.1219 -0.5920 0.2321
0.2001 -0.5619 0.1264
0.1572 -0.5867 0.2781
0.1344 -0.5928 0.1936
0.1142 -0.6022 0.1241
0.2160 -0.5902 0.1562
0.2327 -0.5950 0.3500
0.1599 -0.5748 0.0833
-0.0334 -0.5630 0.1430
0.1237 -0.5634 0.4507
0.2366 -0.5634 -0.0387
0.3884 -0.6012 0.0755
0.2713 -0.5946 0.1140
0.1827 -0.5662 0.4138
0.1567 -0.5867 0.3553
-0.0284 -0.5839 0.1344
-0.0442 -0.5772 0.1348
-0.0519 -0.5634 0.0726
0.2174 -0.5876 0.3298
0.0823 -0.5703 -0.1165
0.3435 -0.5905 0.4357
-0.0896 -0.5988 0.0264
0.1648 -0.5862 0.1844
0.3118 -0.5830 0.2764
0.4714 -0.6332 0.2239
0.2679 -0.5458 0.0695
0.0063 -0.5893 0.0851
0.2025 -0.5745 0.3090
0.2516 -0.5568 0.2375
0.3050 -0.5850 0.4518
0.1297 -0.5122 0.3459
0.3544 -0.6259 0.2151
0.3417 -0.5942 0.0656
-0.0122 -0.1176 0.1210
0.1537 -0.5692 0.2600
0.0638 -0.5816 0.0928
0.1861 -0.5580 0.2845
0.0672 -0.5832 -0.0157
0.2872 -0.5664 0.1506
0.2850 -0.5937 0.4855
0.0940 -0.5708 -0.1297
-0.0897 -0.6072 0.1730
-0.0707 -0.5746 0.1830
0.1185 -0.5858 0.5315
-0.0284 -0.5906 0.2655
0.0233 -0.5886 0.3613
-0.0067 -0.5741 0.2909
0.0218 -0.5738 0.3293
0.3154 -0.5571 0.0332
-0.0535 -0.5233 0.1312
0.1025 -0.5761 0.3651
-0.0199 -0.5828 0.1185
0.0486 -0.5670 0.2241
0.0954 -0.5854 0.2964
0.2203 -0.5836 0.0062
0.2006 -0.5830 0.0044
0.1975 -0.5790 0.3928
0.1082 -0.6066 0.2131
0.1119 -0.6216 0.1778
0.2187 -0.5782 0.1999
0.3732 -0.6280 0.4353
0.1642 -0.5608 0.1491
0.2379 -0.5877 0.3021
0.3333 -0.5991 0.0804
0.0866 -0.5591 0.1457
0.1724 -0.5504 0.0399
0.0176 -0.6152 -0.0127
0.0561 -0.5808 0.3527
0.2066 -0.5799 0.2274
0.3485 -0.5937 0.4030
0.1180 -0.6414 -0.1444
0.1827 -0.5656 0.3697
0.4666 -0.5778 0.3346
0.0119 -0.5974 0.4501
-0.1086 -0.5979 0.2060
-0.0637 -0.5580 0.2151
0.2785 -0.6248 0.4666
0.5128 -0.5902 0.3070
0.0745 -0.5978 0.0593
0.3215 -0.5878 0.3125
-0.1506 -0.5885 0.1607
0.4769 -0.5875 0.1532
0.0068 -0.5860 0.3685
0.2405 -0.5938 0.2865
0.4193 -0.5812 0.1908
0.0482 -0.5485 0.0890
0.0594 -0.5394 0.2485
0.0935 -0.6033 -0.0695
0.3831 -0.6298 0.0487
0.4692 -0.5617 0.2326
0.1645 -0.5589 -0.0396
0.4141 -0.6000 0.2485
0.3609 -0.5831 0.1941
0.4294 -0.5417 0.3033
0.0060 -0.5703 0.3730
0.2849 -0.5789 0.0263
-0.0478 -0.5925 0.1584
0.2553 -0.6116 0.5264
0.0386 -0.0757 0.0705
-0.0598 -0.5742 -0.0155
-0.0407 -0.5802 -0.0318
-0.0253 -0.5835 -0.0446
0.0306 -0.5692 -0.0840
0.5601 -0.5974 0.2803
0.1212 -0.5800 -0.1088
0.2458 -0.5673 -0.0160
0.2648 -0.5726 0.0286
0.4438 -0.5916 0.3660
0.3913 -0.5918 0.1960
0.4083 -0.5831 0.1513
-0.0867 -0.5797 0.1911
0.2620 -0.5907 0.3580
-0.0694 -0.5825 0.3198
0.1719 -0.6046 -0.0843
0.1081 -0.5728 0.4500
0.3822 -0.6195 0.0451
-0.1162 -0.5831 0.2489
0.1544 -0.5819 -0.0899
-0.1894 -0.5803 0.1381
0.1013 -0.3234 -0.0255
0.5251 -0.5844 0.2157
0.2842 -0.6017 0.3633
0.1777 -0.5827 -0.0635
0.2801 -0.5787 0.1028
-0.0238 -0.5732 0.3447
-0.0272 -0.5838 0.4446
-0.1807 -0.5813 0.1505
0.2352 -0.5814 0.3171
0.0673 -0.5964 0.4061
-0.1433 -0.5802 0.2066
0.1541 -0.5747 -0.0764
0.4086 -0.5924 0.1962
0.2908 -0.5961 0.0828
0.0887 -0.5675 0.3381
-0.0372 -0.5892 0.2390
0.0648 -0.5630 0.3383
-0.0161 -0.5808 0.1673
0.0795 -0.4208 -0.0928
0.0886 -0.5829 0.0722
-0.0855 -0.6041 0.2468
0.1777 -0.5643 0.5289
-0.1191 -0.5694 0.0254
0.1534 -0.5950 0.1913
0.4478 -0.6006 0.1765
0.0292 -0.6111 0.4478
0.1261 -0.5806 0.1205
0.4911 -0.6177 0.2047
0.0230 -0.5970 0.1283
-0.1262 -0.7116 0.2227
-0.0253 -0.5902 0.0178
0.1308 -0.5947 0.4496
0.1308 -0.5954 -0.1313
0.1450 -0.6282 -0.0802
-0.1277 -0.5891 0.0317
0.2422 -0.6025 0.5269
0.0731 -0.5646 -0.1169
0.0569 -0.5672 -0.1063
-0.0792 -0.5767 -0.0046
-0.0411 -0.5928 0.3305
-0.0061 -0.5891 0.1936
0.4021 -0.5798 0.2342
0.0787 -0.5916 0.1515
0.0698 -0.6102 0.5194
0.0003 -0.5626 0.2017
-0.0498 -0.5894 0.1477
0.0697 -0.5959 0.3440
-0.0105 -0.6324 0.3578
-0.0389 -0.5546 0.1748
-0.1639 -0.5829 0.0638
0.0615 -0.3186 0.1183
-0.0560 -0.5685 0.1364
-0.0295 -0.0505 0.0365
0.0003 -0.0715 0.0647
-0.1723 -0.5673 0.1200
0.0096 -0.0830 0.0967
0.0632 -0.0965 0.0884
0.2197 -0.5800 0.2933
-0.0422 -0.5589 -0.0210
0.3117 -0.5814 0.2260
0.1267 -0.5454 -0.1462
0.3122 -0.5888 0.2758
0.2394 -0.6019 0.2101
0.0942 -0.5870 0.1331
0.0069 -0.5909 0.0300
0.0874 -0.5888 0.2517
0.0828 -0.5665 -0.0067
0.1048 -0.6083 0.1739
-0.0446 -0.5713 0.1321
-0.0551 -0.5831 0.0719
0.0105 -0.1453 0.1422
0.0321 -0.0478 0.0529
0.0354 -0.1369 0.0764
0.0816 -0.6283 0.2508
0.1887 -0.5758 -0.1096
0.0391 -0.3506 0.2724
0.1509 -0.5686 -0.1652
-0.1961 -0.5860 0.0867
0.0850 -0.5608 -0.1250
0.0389 -0.5889 0.2925
0.0806 -0.5907 0.0702
0.2344 -0.5581 -0.0402
0.0376 -0.5883 -0.0073
0.0548 -0.5998 0.2077
0.0865 -0.5955 0.2771
0.0847 -0.2872 -0.0807
0.0198 -0.1797 0.0895
0.0892 -0.5622 0.5936
0.3538 -0.5641 0.0252
-0.0468 -0.5838 -0.0304
0.3134 -0.5763 0.0177
0.3297 -0.5825 0.0741
0.0444 -0.5976 0.3975
0.3230 -0.5650 0.2859
0.1878 -0.5750 -0.1350
-0.0243 -0.5975 0.3908
0.2870 -0.5866 0.0245
-0.1246 -0.5644 0.0317
-0.0868 -0.5152 0.2243
-0.0420 -0.5607 -0.0248
0.0024 -0.5081 0.1464
-0.1368 -0.5837 0.0325
0.0367 -0.0372 0.0391
0.0243 -0.0265 0.0242
0.0170 -0.0199 0.0069
0.3107 -0.5882 -0.0275
0.1947 -0.5929 0.1458
0.1624 -0.5785 -0.0822
0.1285 -0.6056 -0.1251
0.1366 -0.6247 0.4934
0.0073 -0.1648 -0.0106
0.2088 -0.5544 -0.1178
0.0258 -0.0115 0.0107
0.0183 -0.0193 0.0300
0.0137 -0.0646 -0.0015
0.0216 -0.0149 0.0160
0.0265 -0.0120 0.0090
0.0356 -0.0226 0.0221
0.0412 -0.2237 0.0331
0.0370 -0.0811 0.0203
0.1235 -0.5521 0.1820
0.1070 -0.5678 0.1193
-0.0816 -0.5682 0.2346
0.0365 -0.5679 0.2837
0.0983 -0.5674 0.1997
0.0056 -0.5619 0.3669
0.1526 -0.5471 0.1728
0.0750 -0.5649 0.1455
0.0695 -0.5647 0.2287
0.0997 -0.5757 0.1790
0.0605 -0.5634 0.2203
0.1028 -0.5956 0.1740
0.2894 -0.5670 0.2230
0.0645 -0.5798 0.4619
0.0801 -0.1725 0.0798
0.0734 -0.1309 -0.0136
0.1615 -0.5501 -0.1728
-0.0848 -0.5553 0.1846
0.4630 -0.5668 0.0911
0.2551 -0.5423 0.0523
0.2108 -0.5389 0.3176
-0.1296 -0.5570 0.1742
0.5274 -0.5631 0.2650
0.3321 -0.5431 0.0406
-0.0250 -0.5729 -0.0432
0.3136 -0.5370 -0.0369
-0.0083 -0.5492 0.0102
0.1406 -0.5479 0.1778
-0.0248 -0.5414 0.0175
-0.1267 -0.5650 0.0318
0.1864 -0.5690 0.1411
0.2703 -0.5472 0.2347
0.1759 -0.5192 0.3512
0.2684 -0.5524 -0.0943
0.5150 -0.6124 0.0956
0.0939 -0.5438 -0.1198
-0.0530 -0.5448 0.0690
0.3534 -0.5686 0.0286
0.1933 -0.5375 0.1403
0.0805 -0.5446 -0.0629
0.4235 -0.5871 0.1541
0.2317 -0.5534 0.0434
0.3236 -0.5441 0.0272
-0.0629 -0.5431 0.0522
0.2669 -0.5689 0.3441
0.2519 -0.5488 0.0285
0.0640 -0.5552 0.3219
-0.0397 -0.5624 -0.0303
0.5154 -0.5733 0.2136
0.3868 -0.5830 0.2800
0.3156 -0.5806 0.0189
0.3849 -0.5710 0.1453
-0.0790 -0.5670 -0.0034
0.1364 -0.5425 0.0830
0.1893 -0.5628 0.2097
0.2986 -0.5818 0.4628
0.0451 -0.5609 0.2318
0.2929 -0.5472 0.2115
-0.0083 -0.5884 0.3496
-0.0365 -0.5744 0.1017
0.3553 -0.5763 0.1937
0.1796 -0.4485 0.2125
0.2017 -0.4554 0.1889
-0.0285 -0.1395 0.0246
0.0396 -0.5748 -0.0944
0.2309 -0.5739 0.5034
0.1586 -0.5537 -0.1730
0.1149 -0.5589 -0.1036
0.2460 -0.5879 0.5082
0.2764 -0.5753 0.4710
-0.0535 -0.5789 -0.0220
0.1064 -0.5650 0.4417
-0.0300 -0.5828 -0.0259
0.1850 -0.5424 -0.1795
0.0648 -0.5639 0.4822
0.1424 -0.5543 -0.0738
0.1334 -0.5669 -0.0743
-0.0058 -0.5564 0.1839
0.0375 -0.5860 0.2479
0.0845 -0.5893 -0.0281
0.1933 -0.5837 0.2121
0.2318 -0.5563 0.3064
0.0260 -0.5658 0.1858
0.2807 -0.5789 0.0260
0.2020 -0.5274 0.3856
0.1773 -0.5466 -0.1264
0.0018 -0.5644 -0.0639
0.2351 -0.5317 0.3228
-0.0169 -0.5576 0.1625
-0.0406 -0.5602 0.1775
-0.0228 -0.5986 0.2616
0.1338 -0.2875 0.0252
-0.0095 -0.5533 0.3148
0.1772 -0.5648 0.5267
0.1280 -0.5579 -0.1481
-0.1631 -0.5726 0.0655
0.3959 -0.5678 0.1484
0.1737 -0.5539 -0.1708
0.0975 -0.5633 0.3547
0.1467 -0.5168 -0.0031
-0.0455 -0.5482 -0.0272
0.1427 -0.5462 -0.1561
0.0822 -0.5529 -0.1216
-0.0688 -0.5590 0.1178
0.1252 -0.5812 0.1222
0.0356 -0.1180 -0.0127
0.0228 -0.5735 0.3292
0.0528 -0.5426 -0.1007
0.0050 -0.5521 0.0284
0.0607 -0.5429 -0.0138
-0.0277 -0.5495 0.1280
0.2038 -0.5519 0.3111
0.2476 -0.5445 0.1050
0.0110 -0.5702 0.4343
0.1725 -0.5373 0.3935
0.0922 -0.5440 0.1916
0.3840 -0.5724 0.1460
0.3561 -0.5792 0.1942
-0.0102 -0.5586 0.3187
0.0652 -0.5289 0.5724
-0.0091 -0.5580 0.3334
0.0014 -0.0411 -0.0385
-0.1069 -0.5255 0.2248
0.2974 -0.5573 0.2166
0.4556 -0.5688 0.3276
0.4538 -0.5581 0.0910
0.0388 -0.5524 0.3845
0.0421 -0.4689 0.2810
0.0623 -0.5492 0.4720

