-0.2481 -1.0305 -0.0602
0.0104 -0.9798 0.2139
-0.1660 -1.0517 -0.0218
-0.2981 -0.9874 0.4203
-0.2215 -1.0378 -0.0358
-0.0476 -0.9934 0.2583
-0.6425 -1.1001 0.1765
-0.1149 -0.9451 0.3982
-0.3010 -0.9601 0.0114
-0.2626 -1.0163 0.5300
0.1660 -0.9737 0.3257
-0.0737 -0.9674 0.1585
0.0622 -0.9690 0.5712
-0.3449 -0.9977 0.3549
-0.4063 -1.0021 0.1709
-0.0129 -0.9798 0.2718
-0.4673 -1.3983 0.3906
-0.3862 -0.4010 0.3776
-0.0425 -1.0016 0.2844
-0.1994 -0.9932 0.0330
-0.1670 -1.0202 0.3153
-0.1685 -0.0935 0.1414
0.0220 -1.0263 0.3111
-0.3375 -0.9921 0.1725
-0.0615 -0.0893 0.0898
-0.1884 -1.0347 0.0351
-1.0405 -1.1199 -0.0119
-0.3778 -1.0631 -0.0275
-0.2501 -1.0624 -0.0847
-0.3502 -1.0872 0.1627
-0.1825 -1.0380 0.0034
-0.3687 -1.4416 0.4451
-0.1060 -1.0268 0.2947
-0.5786 -1.2529 0.6609
-0.5470 -1.0837 -0.1260
-0.6945 -1.1699 -0.2061
-0.6230 -0.5015 0.5367
-0.6931 -0.5173 0.5741
-0.7228 -0.4957 0.5370
-0.6942 -0.4695 0.7279
-0.5737 -0.4901 0.5775
-0.5880 -0.4971 0.5733
-0.6286 -0.4902 0.5067
-0.6728 -0.4922 0.6049
-0.5992 -0.4997 0.5511
-0.7638 -0.5011 0.6010
-0.7283 -0.4922 0.5730
-0.7079 -0.4960 0.5576
-0.6530 -0.4908 0.5161
-0.6711 -0.4897 0.4928
-0.5362 -1.1641 -0.0765
-0.5329 -1.1720 -0.2312
-0.2663 -0.5996 -0.1423
-0.1198 -0.7662 0.0723
-1.1289 -1.1836 -0.0673
-0.6042 -0.4621 0.4800
-0.9266 -0.8535 0.0272
-0.4845 -0.4694 0.7089
-0.2331 0.0470 0.1990
-0.5928 -0.4044 0.7649
-0.2934 0.0205 0.2618
-0.7773 -0.4779 0.2462
-0.7926 -0.4702 0.4089
-0.5790 -0.4782 0.4911
-0.7067 -0.5069 0.4796
-0.5967 -1.0741 -0.1307
-0.5394 -0.4862 0.7679
-0.9860 -0.5149 0.2260
-0.9371 -0.4696 0.2489
-0.3204 0.0856 0.1458
-0.2963 -1.2113 0.9801
-0.3253 -1.0051 0.8627
-0.4362 -0.4446 0.6633
-0.7593 -0.4179 0.7149
-0.7918 -0.7838 0.6542
-0.8607 -0.4372 0.5303
-0.5658 -0.4080 0.6426
-0.8169 -0.6382 0.3998
-1.3573 -1.0260 0.3367
-0.3107 -0.1602 0.2414
-0.3791 -0.0035 0.1949
-1.0861 -0.4739 0.4844
-0.3063 0.1616 0.2109
-2.0603 -1.1190 0.6563
-0.6636 -0.4035 0.6744
-0.6617 -0.3939 0.7010
-0.2952 0.1072 0.1774
-0.5549 -0.3848 0.5543
-0.9307 -0.4380 0.6831
-0.2758 -0.0690 0.2442
-0.2585 0.0808 0.2059
-1.1423 -0.4949 0.3288
-1.3004 -0.5277 0.4553
-1.1267 -0.4866 0.3955
-1.2252 -0.5034 0.5724
-0.7328 -0.4026 0.6292
-0.7254 -0.4058 0.5950
-1.1149 -0.4847 0.6683
-1.0182 -0.4407 0.6737
-0.8674 -0.4515 0.9656
-1.1377 -0.4687 0.5569
-1.2230 -0.4831 0.4711
-1.8725 -1.0519 0.5500
-0.2978 0.1070 0.1767
-0.5158 -0.4504 0.5438
-0.5798 -0.4230 0.6236
-0.4687 -0.0197 0.2953
-0.3990 -0.0452 0.2947
-0.4622 0.0070 0.2513
-0.8433 -0.3822 0.6425
-1.6398 -1.3514 0.2086
-0.2623 0.1351 0.1593
-1.0846 -1.0865 0.0509
-1.3444 -0.6656 0.4196
-0.8465 -0.5806 0.2531
-0.3106 0.0446 0.1931
-0.3560 0.1026 0.1950
-0.2911 0.0794 0.2198
-0.2805 0.0844 0.2014
-0.2912 0.1234 0.1759
-0.3599 -0.1711 0.2275
-0.3492 0.0519 0.2486
-0.2815 0.0982 0.1998
-0.2765 0.0987 0.2045
-0.3813 -0.0826 0.3490
-0.2850 0.0858 0.2044
-0.3577 0.0622 0.2362
-0.4489 -0.1788 0.3718
-0.3504 0.0805 0.2076
-0.3280 -0.1484 0.2776
-0.3419 -0.1023 0.2308
-0.4867 -0.1703 0.4591
-0.3249 -0.6662 0.5341
-0.5985 -0.3509 0.3026
-1.3842 -1.2448 0.3646
-1.2223 -2.1497 2.0356
-1.3621 -2.0806 2.0995
-2.9684 -4.0686 2.0929
-2.5816 -2.3338 3.4165
-0.5003 -0.2546 0.7005
-0.5615 -0.2942 0.4821
-1.0715 -0.9354 0.9528
-0.5954 -0.3535 0.6632
-0.8744 -0.9918 0.7041
-0.6269 -0.5714 0.7047
-0.8867 -0.5606 0.6255
-1.6954 -1.1156 1.4254
-1.3050 -0.9543 1.5583
-0.9989 -1.1174 1.0814
-0.8268 -6.0664 4.0735
-1.0423 -0.8736 0.3740
-2.4493 -3.7235 3.9490
-1.4747 -2.6041 1.9901
-1.8577 -3.1009 2.7114
-1.7678 -2.7008 2.8552
-2.7293 -3.3298 2.1642
-1.1352 -2.2745 2.2989
-2.5562 -2.9025 0.9400
-3.9118 -4.3168 0.8939
-3.2068 -2.5364 3.4174
-1.8943 -2.6715 1.7037
-3.1424 -2.4990 3.0905
-4.3515 -3.3331 3.5080
-2.2844 -2.6729 3.2909
-2.8482 -3.5637 3.7194
-2.5636 -2.7390 2.3325
-1.4514 -0.8035 0.8229
-1.0103 -2.5517 2.4059
-2.3421 -2.4241 3.2429
-2.3649 -2.4979 3.1576
-2.4573 -2.0966 2.9836
-1.9905 -2.5813 2.4635
-1.7831 -2.3530 2.0497
-2.3478 -2.2929 2.3127
-1.9273 -2.4459 1.7126
-2.4425 -2.6419 2.0966
-2.6344 -2.7098 1.9385
-2.9574 -2.8116 2.1348
-2.6539 -2.6547 1.5456
-2.6158 -2.8369 1.4776
-1.3841 -3.1214 2.4175
-4.5564 -3.5718 3.9221
-2.1021 -2.6103 1.2935
-5.6317 -2.9656 7.8555
-1.4502 -0.7743 0.7308
-1.5596 -0.8469 0.4287
-4.4976 -3.1177 2.2167
-4.7407 -3.3134 1.4524
-0.8173 -4.8105 2.0835
-2.3168 -2.2508 2.4216
-3.0527 -2.7361 2.9794
-2.7485 -2.6526 2.5705
-3.3386 -2.6961 2.3539
-3.4163 -2.6539 2.1179
-1.4335 -0.8469 0.6788
-3.2921 -2.9406 1.9882
-3.1030 -2.8766 1.7804
-2.9154 -2.6811 1.5180
-3.6759 -2.7435 1.9474
-1.5107 -5.2829 2.2602
-1.6250 -3.0200 2.8542
-2.0024 -2.8137 2.6012
-2.2490 -2.7622 2.4021
-0.2882 -1.5339 1.1760
-3.7373 -3.7263 2.9702
-3.7785 -3.2998 3.9245
-4.2661 -3.1072 2.3489
-5.5691 -3.0903 7.7479
-2.0118 -2.5874 3.1716
-1.9285 -2.1351 2.3796
-2.5380 -2.4893 1.9607
-3.3118 -2.3872 1.5285
-3.2768 -2.6654 3.0712
-3.3972 -3.0274 2.6831
-2.3360 -3.2380 1.2277
-0.4297 -1.2984 1.3142
-0.2738 -0.1004 0.4401
-0.2907 -0.1873 0.3984
-0.7411 -0.5097 0.4650
-1.8031 -0.4443 1.0122
-0.4919 -2.1516 1.0354
-1.2490 -1.8981 1.9665
-1.0788 -0.8700 0.2904
-1.7708 -0.9722 0.4479
-1.6187 -1.4610 1.0921
-1.6573 -0.9472 0.4608
-1.5498 -0.8276 0.8311
-1.5941 -0.9865 0.3414
-1.6403 -1.0045 1.0516
-0.0034 -0.1420 0.0325
-1.5436 -0.8105 0.4795
-1.0972 -0.7994 0.7437
-1.4859 -0.7373 0.7439
-1.5214 -0.8433 0.5040
-1.6871 -0.8187 0.4941
-1.5003 -0.7737 0.8427
-0.8677 -0.8842 0.7818
-1.2259 -0.8202 0.7185
-1.4375 -0.8862 0.3644
-1.0152 -0.8422 0.6195
-1.2272 -0.8075 0.2788
-0.8575 -0.8148 0.8067
-1.2112 -1.1750 1.0028
-1.1499 -0.8244 0.0740
-0.5826 -0.3404 0.1558
-0.4589 0.0742 0.1398
-0.5509 0.0195 0.2639
-0.6579 -0.2658 0.1361
-1.8514 -1.6018 1.3099
-0.1073 -0.1168 0.1060
-0.7627 -0.6969 0.4951
-0.7567 -1.4632 1.0649
-0.4315 -0.6581 0.2529
-1.2401 -1.4772 1.2961
-1.1233 -1.5355 1.1514
-0.3952 -0.6803 0.2965
-0.3367 -0.6564 0.3578
-1.5575 -1.5555 0.9349
-0.5289 -0.7221 0.2274
-0.2664 -0.6523 0.4690
-0.7052 -0.7342 0.3447
-0.2717 -0.7117 0.3700
-1.4213 -1.5737 1.3147
-0.4493 -0.7258 0.4205
-1.8277 -1.6887 1.3592
-0.0956 -1.5434 1.1385
-0.0987 -0.7439 0.5115
-0.1811 -0.6613 0.4771
-0.2310 -0.6362 0.4114
-0.3492 -0.6950 0.2927
-0.4857 -0.6868 0.3538
-0.5167 -0.6520 0.2608
-0.4889 -0.7046 0.4898
-0.5277 -1.5332 1.0671
-0.5933 -1.4440 0.9355
-0.6125 -1.4575 0.8611
-0.2583 -0.7515 0.3974
-0.9072 -1.4459 0.4513
-1.3670 -1.6124 1.2311
-0.2640 -0.6350 0.2736
-0.5110 -0.6512 0.2998
-0.6270 -0.6689 0.3112
-0.0597 -0.0644 0.0608
-0.0366 -0.0482 0.0496
-0.0225 -0.0399 0.0416
-0.0556 -0.0713 0.0466
-0.0269 -0.0559 0.0422
-0.0401 -0.0542 0.0505
-0.0071 -0.0050 0.0005
-0.0179 -0.0347 0.0287
-0.1577 -0.0805 0.1726
-0.0844 -0.1861 0.0739
-0.0239 -0.0371 0.0355
-0.0268 -0.0457 0.0367
-0.0400 -0.0574 0.0393
-0.0562 -0.0876 0.0474
-0.0213 -0.1022 0.0948
-0.0425 -0.1222 0.0777
-0.0450 -0.1256 0.0715
-0.0155 -0.0637 0.0470
-0.0371 -0.0580 0.0333
-0.0330 -0.0559 0.0605
-0.0460 -0.3520 0.2551
-0.0815 -0.1370 0.1411
-0.1621 -0.2663 0.0745
-0.0126 -0.0921 0.0647
-0.0261 -0.1312 0.0749
-0.1790 -0.2544 0.1948
-0.0434 -0.3706 0.3591
-0.2716 -0.3443 0.1197
-0.3650 -0.8135 0.3084
-0.3896 -0.9311 0.4547
-0.5648 -0.8447 0.8709
-0.6269 -0.7686 0.7186
-0.4754 -0.7694 0.8250
-0.1279 -0.8797 0.6298
-0.5459 -0.8010 0.7772
-0.7405 -0.7535 0.4252
-0.4872 -0.7604 0.7204
-0.6482 -0.7573 0.3208
-0.6058 -0.8201 0.8081
-0.7335 -0.7664 0.5311
-0.7244 -0.7959 0.6951
-0.8584 -0.8154 0.6350
-0.2070 -0.8061 0.4707
-0.4469 -0.7835 0.7885
-0.6686 -0.7814 0.6728
-0.2793 -0.7844 0.6037
-0.4323 -0.7964 0.5116
-0.5640 -0.7482 0.1811
-0.3292 -0.8242 0.6518
-0.4738 -0.8230 0.7354
-0.5871 -0.7782 0.7161
-0.6571 -0.7247 0.6749
-0.2961 -0.7962 0.4816
-0.4300 -0.7942 0.8489
-0.5026 -0.8223 0.8371
-0.7257 -0.7633 0.4846
-0.3222 -0.8301 0.7021
-0.3685 -0.7858 0.5872
-0.4611 -0.8098 0.1928
-0.7332 -0.8050 0.4063
-0.5734 -0.6966 0.5887
-0.8125 -0.7774 0.6093
-0.6403 -0.7881 0.3136
-0.1293 -0.8162 0.5355
-0.3048 -0.7952 0.4357
-0.3472 -0.7905 0.4436
-0.4445 -0.8400 0.2709
-0.4702 -0.7807 0.2154
-0.2846 -0.7849 0.5200
-0.5502 -0.7939 0.1541
-0.6593 -0.7536 0.5663
-0.3071 -0.8392 0.6195
-0.5123 -0.7864 0.4214
-0.7933 -0.7707 0.4966
-0.9231 -0.7944 0.5927
-0.3299 -0.7877 0.4728
-0.6010 -0.8096 0.5875
-0.3178 -1.5131 0.1263
-0.6463 -0.7999 0.5901
-0.3934 -0.7591 0.2167
-0.6187 -0.7996 0.4399
-0.4670 -0.8106 0.1998
-0.7664 -0.8058 0.4043
-0.2540 -0.8069 0.4806
-0.5874 -0.8680 0.9523
-0.5904 -0.7982 0.8348
-0.3832 -0.8066 0.5551
-0.3455 -0.8057 0.4970
-0.3907 -0.8013 0.5082
-0.3581 -0.7997 0.4049
-0.3997 -0.7919 0.4116
-0.4496 -0.7843 0.3665
-0.5600 -0.7989 0.4782
-0.6079 -0.7954 0.4830
-0.5627 -0.7939 0.4291
-0.6088 -0.7796 0.3797
-0.6110 -0.7752 0.2504
-2.3786 -1.4675 1.6265
-1.8652 -0.9609 1.0091
-0.7203 -0.7827 0.6421
-0.3755 -0.7775 0.2601
-0.7496 -0.8079 0.6180
-0.6925 -0.7923 0.5458
-0.6641 -0.8076 0.5014
-0.5828 -0.8049 0.3925
-0.6575 -0.7890 0.4394
-0.8365 -0.8033 0.6822
-0.4633 -0.7605 0.2556
-0.5112 -0.7788 0.2749
-0.5715 -0.8000 0.2966
-2.1884 -1.2179 1.4615
-0.5464 -0.7885 0.5185
-0.4301 -0.8319 0.2738
-0.8286 -0.7588 0.5269
-0.7240 -0.7597 0.3771
-0.4462 -1.3773 -0.2077
-0.8732 -0.7875 0.6290
-0.8072 -0.7984 0.5272
-0.6594 -0.7707 0.3312
-1.3984 -0.7588 0.5482
-0.7701 -0.7921 0.1084
-0.8810 -0.7801 0.0954
-0.6410 -0.7480 0.3658
-0.7268 -0.7944 0.5757
-1.0223 -0.8296 -0.1501
-0.3246 -0.8143 0.3505
-0.2040 -0.8384 0.4059
-0.8614 -0.7965 0.6718
-0.4751 -0.7704 0.4074
-0.6570 -0.8654 0.9516
-0.5083 -0.7926 0.6176
-0.6055 -0.8425 0.2311
-0.9958 -0.9109 0.7915
-0.7905 -0.7975 0.5353
-0.6790 -0.8041 0.6214
-0.6789 -0.7966 0.5618
-0.7812 -0.8464 0.5557
-1.6498 -0.9694 1.4371
-1.1172 -0.4886 0.6144
-2.5001 -1.0279 1.1490
-2.0240 -0.9082 1.1754
-0.6838 -0.8278 0.4195
-0.7443 -0.7949 0.4018
-0.6637 -0.7802 0.3070
-0.3550 -0.8302 0.3303
-0.5126 -0.8213 0.3576
-0.4306 -0.8546 0.2956
-0.6076 -0.8012 0.4051
-0.5506 -0.7999 0.3538
-0.5300 -0.8218 0.2604
-0.5458 -0.8053 0.1656
-0.4345 -0.7888 0.2229
-2.1324 -1.1447 1.4245
-2.7994 -1.2462 1.4509
-2.0571 -1.4485 1.8404
-0.4777 -0.8308 0.7290
-0.3560 -0.8244 0.5536
-0.5790 -0.8077 0.8110
-0.5822 -0.8027 0.7573
-0.4963 -0.7989 0.6360
-0.4743 -0.7966 0.6070
-0.6423 -0.8143 0.7808
-0.3820 -0.8045 0.4763
-0.4547 -0.7938 0.5375
-0.6833 -0.8001 0.7319
-0.5107 -0.7844 0.4993
-0.6497 -0.7969 0.6286
-0.6384 -0.8155 0.6173
-0.6051 -0.7934 0.5710
-0.4765 -0.8009 0.4395
-0.7847 -0.8210 0.6911
-0.5699 -0.7648 0.4763
-0.6037 -0.8024 0.4540
-0.6455 -0.7402 0.4739
-0.7431 -0.7786 0.5406
-0.8173 -0.7818 0.5773
-0.5829 -0.7755 0.3451
-0.5897 -0.8399 0.1674
-0.5760 -0.8085 0.8637
-0.2473 -0.8093 0.4491
-0.2883 -0.8005 0.4544
-0.3355 -0.8049 0.4671
-0.3537 -0.8309 0.4316
-0.3931 -0.8113 0.4371
-0.4312 -0.7965 0.4335
-0.3956 -0.8135 0.3854
-0.4935 -0.8011 0.3945
-0.6356 -0.7925 0.5031
-0.5041 -0.7903 0.2932
-0.6789 -0.8148 0.3673
-1.7521 -1.1810 2.2471
-0.2912 -0.8275 0.8171
-0.4146 -0.7914 0.9574
-0.3388 -0.7991 0.8487
-0.4074 -0.7991 0.8741
-0.3275 -0.8005 0.7525
-0.4251 -0.8159 0.8401
-0.4112 -0.8655 0.8322
-0.5110 -0.8008 0.8978
-0.4576 -0.7860 0.8197
-0.5135 -0.7977 0.8400
-0.5317 -0.8104 0.8048
-0.5209 -0.8407 0.7233
-0.5509 -0.8187 0.5547
-0.7476 -0.8594 0.3824
-0.1448 -0.8425 0.5503
-0.3157 -0.8783 0.7682
-0.2558 -0.8118 0.6496
-0.4525 -0.7958 0.9297
-0.2245 -0.8065 0.5408
-0.1910 -0.8180 0.4913
-0.2651 -0.7888 0.5373
-0.3655 -0.8069 0.5697
-0.3007 -0.8089 0.4147
-0.3052 -0.8172 0.3677
-0.4976 -0.8054 0.4889
-0.4737 -0.8621 0.4155
-0.6750 -0.8490 0.5911
-0.4693 -0.8351 0.3550
-0.4673 -0.8099 0.2973
-1.8144 -1.0790 1.6171
-1.9434 -1.0598 1.3376
-1.6341 -0.8841 1.6078
-1.8870 -0.9753 1.7102
-0.2494 -0.7764 0.9863
-0.2086 -0.8235 0.8975
-0.1165 -0.8081 0.6977
-0.2855 -0.8330 0.9701
-0.3163 -0.8199 1.0104
-0.3801 -0.7977 0.9008
-0.4553 -0.7973 0.8792
-0.8135 -0.7777 0.7067
-0.8465 -0.8302 0.6686
-0.3075 -1.5896 0.0437
-0.9434 -0.8496 0.6683
-0.6315 -0.8531 0.2207
-0.0180 -0.8423 0.5547
-0.0866 -0.8186 0.6513
-0.0500 -0.8238 0.5973
-0.3098 -0.8162 1.0532
-0.0570 -0.8125 0.5315
-0.0977 -0.8113 0.5964
-0.1076 -0.8096 0.5467
-0.5379 -0.7898 0.9339
-0.2072 -0.8563 0.4588
-0.2645 -0.8503 0.4158
-0.7342 -0.8265 0.4310
0.0483 -0.8179 0.5764
-0.2207 -0.7803 0.7569
-0.2888 -0.8068 0.7522
-0.3280 -0.7831 0.6880
-0.3563 -0.8235 0.6782
-0.3932 -0.8142 0.4435
0.0037 -0.8194 0.5744
-0.2512 -0.8271 0.4630
-0.0589 -0.8039 0.8474
-0.1382 -0.7960 1.0047
-0.1921 -0.7898 1.0795
-0.1332 -0.8073 0.9626
-0.2308 -0.7415 0.9905
0.0262 -0.8711 0.7797
-0.2030 -0.8196 1.0837
-0.2113 -0.8021 1.0122
-0.7479 -0.8323 0.6957
-0.7172 -0.8102 0.7254
-0.5512 -0.8101 0.5002
-0.6323 -0.8064 0.8250
-0.5515 -0.8214 0.9619
0.2544 -1.5154 0.7461

