0.5102 -1.2380 -0.9686
-0.1425 -1.1625 -0.4809
-0.0040 -1.3135 -1.3053
0.0708 -1.2656 -1.9353
-0.1517 -1.3781 -1.9079
-0.2545 -1.2125 -1.7220
-0.0663 -1.3122 -0.8738
0.6525 -1.0639 -1.9266
0.7470 -1.3828 -1.4232
0.5435 -1.1311 -1.1285
0.1761 -1.0962 -1.2506
0.1038 -1.2322 -0.4591
0.0999 -1.3726 -1.4935
-0.3272 -1.1850 -1.6053
0.8851 -1.2770 -1.8677
0.8652 -1.2315 -1.9562
0.7417 -1.0211 -1.8542
0.6055 -0.9800 -1.8436
0.3842 -1.2568 -1.3450
0.1582 -0.9641 -0.3593
0.3198 -1.4054 -2.6313
0.2707 -1.2084 -2.3996
0.2464 -1.2156 -2.2397
-0.1576 -1.2598 -2.2451
-0.0349 -1.2364 -0.8295
-0.0989 -1.2918 -1.2481
-0.4230 -1.2542 -2.0531
0.0239 -1.2242 -2.1559
0.1810 -0.9679 -2.2003
-0.4543 -1.3102 -1.5744
0.6978 -1.1932 -1.2270
0.4445 -1.2348 -1.5456
-0.2548 -1.2219 -0.4462
-0.2524 -1.0876 -0.8409
0.0497 -1.4794 -0.4119
0.4486 -1.3695 -1.1381
0.2900 -1.1862 -1.2871
-0.2615 -0.9708 -1.5296
0.2667 -1.1944 -1.4076
-0.0361 -1.2151 -1.5572
0.0081 -1.1258 -1.2455
0.2803 -1.1821 -1.4885
0.3996 -1.1880 -1.2765
0.4381 -0.8496 -1.8289
0.1912 -0.9312 -2.0958
0.8096 -0.8886 -1.8864
0.6655 -1.3093 -1.6336
0.5656 -1.1021 -1.5588
0.4753 -1.3135 -2.1843
0.2411 -1.2643 -1.4158
0.1109 -1.2147 -0.3138
0.0626 -1.0605 -1.9412
0.0221 -1.0405 -2.2331
-0.0310 -1.1797 -2.2858
-0.2498 -1.2584 -0.4830
-0.1874 -0.9572 -1.9574
-0.1756 -0.8316 -0.9982
1.1867 -1.2243 -2.0947
0.6470 -1.3158 -0.4277
0.9233 -1.1780 -1.5044
0.4894 -0.8489 -0.5836
-0.2755 -1.2392 -1.0359
-0.2603 -1.0452 -1.1913
0.2844 -1.3699 -0.4408
0.3722 -1.4065 -1.1867
0.2449 -1.2600 -0.4535
0.0264 -1.4447 -1.1284
-0.0599 -1.2071 -0.8443
-0.2461 -1.4683 -0.9058
-0.1674 -1.4057 -0.6697
-0.2030 -0.8496 -1.3344
-0.2435 -1.3098 -0.7548
-0.2543 -1.2790 -0.5750
-0.1283 -1.2747 -0.4815
-0.1254 -2.4311 -0.6229
0.0718 -1.0545 -2.3577
0.1782 -1.3721 -2.0440
0.4142 -0.8392 -1.7324
0.5470 -0.7899 -1.6620
0.8393 -1.2690 -1.7827
0.7200 -1.1023 -1.4837
1.2191 -1.1495 -1.4272
1.2416 -1.2764 -1.5076
0.7505 -0.9878 -1.7289
0.5300 -0.5914 -1.4965
0.5725 -1.2543 -2.1736
0.4980 -0.9810 -1.8276
0.4253 -1.2233 -1.9734
0.4015 -0.9066 -2.0365
0.1608 -0.9405 -2.3166
0.0416 -1.2230 -2.1398
0.6867 -1.2234 -1.0183
-0.0140 -1.1998 -0.8066
0.4093 -1.2959 -0.6118
0.1236 -1.4809 -1.5490
0.5939 -1.0556 -1.6787
0.2900 -1.2551 -0.4961
0.2562 -1.1306 -0.5933
0.1681 -1.1822 -0.8366
0.8443 -1.3284 -1.2736
1.1182 -1.1673 -1.2923
0.5543 -1.4430 -0.5811
0.2787 -1.2323 -1.7642
0.4410 -0.6802 -1.7136
0.5233 -0.8542 -1.7653
0.6818 -2.0962 -0.6595
0.7676 -1.2799 -0.9587
0.7729 -1.2904 -0.8744
0.6123 -1.4050 -0.4282
0.8899 -1.2367 -0.9582
0.8692 -1.2763 -0.8456
1.1151 -1.2161 -1.3518
0.6966 -1.2881 -0.4577
1.1889 -1.0966 -1.4482
1.3464 -1.0327 -1.2709
0.6127 -1.1066 -1.5121
1.3616 -1.0144 -1.2126
0.7993 -0.7886 -1.7333
0.5907 -1.1845 -1.5552
0.5035 -0.9393 -1.6853
0.2956 -1.0562 -1.6726
0.1105 -0.9562 -0.6087
0.3335 -0.8641 -2.0809
0.3208 -1.2315 -0.7292
0.2363 -1.2113 -2.1602
1.2309 -1.0853 -1.1662
1.2009 -0.9768 -1.1131
0.1040 -1.2859 -1.4736
0.3332 -0.8853 -1.8979
0.3690 -0.7424 -1.8427
0.4160 -1.3155 -2.2468
0.4233 -1.5142 -2.2058
0.5342 -1.1273 -1.8868
0.5409 -1.1879 -1.6865
0.3101 -1.1582 -0.7801
0.7662 -1.3027 -1.8011
0.6642 -1.1746 -1.2948
0.8342 -1.2778 -0.9845
1.7613 -1.1820 -1.9853
1.1632 -1.0009 -1.1652
1.2030 -1.1856 -1.1742
1.2813 -1.0885 -1.0461
1.2117 -1.2054 -0.8831
1.3932 -0.9726 -1.2010
0.1879 -1.0796 -0.8439
0.2175 -1.2479 -0.9142
0.6440 -1.0314 -1.8713
0.2915 -1.1637 -0.7388
0.7470 -0.6959 -1.7304
0.3980 -1.2137 -0.8707
1.1830 -1.1025 -2.2111
0.8224 -1.0535 -1.3157
1.2316 -1.2980 -1.7056
1.0609 -0.9480 -1.1893
1.1566 -1.0819 -1.2829
1.2043 -1.2803 -0.9166
1.3090 -1.0721 -1.1446
0.2653 -1.2727 -1.3750
0.5086 -0.5725 -1.6042
0.1851 -1.2433 -0.7879
0.5675 -1.1012 -1.7550
0.2311 -1.2495 -0.7728
0.7167 -1.1333 -1.4088
0.7371 -1.5216 -0.8590
1.1640 -1.2374 -1.2964
0.2129 -1.2153 -0.9053
0.9839 -1.2492 -0.3474
0.3504 -1.1649 -1.2339
0.4773 -1.2006 -1.4719
0.9851 -1.2843 -0.4405
0.4822 -1.1265 -1.3834
1.0750 -1.5043 -0.4253
0.2695 -1.2540 -0.8867
0.2823 -1.0823 -0.8025
0.5942 -1.1593 -1.6181
0.2905 -1.1371 -0.7797
0.3232 -1.2178 -0.8540
0.6948 -1.1367 -1.6965
0.6214 -1.1857 -1.6078
0.3175 -1.2095 -0.8247
0.3060 -1.2443 -0.8130
0.9272 -1.1942 -0.4723
0.7469 -0.8464 -1.7736
0.7704 -1.0187 -1.8419
0.8769 -1.1254 -1.7544
0.9145 -1.2449 -0.4852
0.5301 -1.1747 -1.0216
0.4472 -1.1130 -0.8508
0.5148 -1.6378 -1.0112
0.9378 -1.2492 -0.5238
0.9099 -1.2684 -0.4990
0.8764 -1.1136 -1.6305
1.3051 -0.8634 -1.0559
0.6776 -1.2749 -1.3209
0.6488 -1.2627 -1.2630
1.3526 -0.9888 -1.0509
1.2448 -1.0920 -0.9842
0.6754 -1.1785 -1.1343
0.7094 -1.0148 -1.1662
0.5053 -1.1781 -0.7987
1.2467 -0.9969 -1.1269
0.5486 -1.1598 -0.8095
0.8329 -1.1949 -0.5809
1.3129 -0.9440 -1.2435
0.8725 -1.2758 -0.6168
0.5824 -0.7321 -0.4930
0.7725 -1.2214 -0.5319
0.5787 -1.2388 -0.7725
1.2232 -0.9262 -1.2110
1.6695 -1.1704 -1.6952
1.1962 -1.0729 -1.2526
1.4286 -1.0857 -1.4871
1.0723 -1.1867 -1.0302
1.1923 -1.1091 -1.2134
1.2885 -1.3292 -1.6679
1.1877 -1.2657 -1.5211
1.2571 -1.1839 -1.6087
0.8943 -1.1602 -1.0758
1.1668 -1.2221 -1.4434
0.7528 -1.1900 -0.8333
1.1342 -1.2139 -1.3426
0.9090 -1.2239 -0.9799
0.3109 -1.1683 -0.8487
0.4825 -1.2183 -1.1582
0.5493 -1.1863 -1.0344
0.4356 -1.1460 -0.7283
0.9041 -1.2716 -1.2605
0.4945 -1.3160 -1.6465
0.5882 -0.9136 -1.5452
0.4072 -1.2372 -0.8181
0.3545 -1.1616 -0.7020
0.6572 -1.1205 -1.2487
1.2043 -1.0762 -1.2327
1.4647 -1.0719 -0.9965
1.6072 -1.1074 -1.0465
0.9300 -1.1654 -0.3537
0.8853 -1.3448 -0.8220
0.7164 -0.8974 -1.7358
1.1945 -1.1002 -1.1750
1.1730 -1.1823 -1.3951
0.5814 -1.1611 -1.9506
0.5584 -1.1134 -1.8550
1.3110 -1.0165 -1.1821
0.6204 -1.1909 -1.9569
1.1884 -1.0730 -1.1848
0.6217 -1.1827 -1.8788
1.1425 -1.2461 -1.3142
1.2643 -1.2471 -1.4072
1.1877 -1.1197 -1.4139
0.6927 -0.7818 -1.6617
1.1669 -1.0115 -1.4463
0.5121 -1.1693 -0.8972
0.4932 -1.1978 -0.9347
0.8532 -1.0678 -1.7909
0.8273 -1.2289 -1.7838
0.6088 -1.1471 -1.5143
1.2687 -0.9909 -1.1778
0.2693 -1.2070 -0.7529
0.3450 -1.2121 -0.8905
0.2693 -1.4966 -0.8009
0.6822 -1.0543 -1.8228
0.5617 -1.1849 -1.1684
0.6109 -1.2195 -1.2205
0.8442 -1.1962 -0.4628
0.9439 -1.1716 -0.6013
1.2985 -0.9910 -1.0229
1.2690 -1.3277 -1.1052
0.8322 -1.1789 -0.3740
0.3088 -1.2038 -1.0229
1.5523 -1.2700 -2.2733
0.8851 -1.2212 -0.3221
0.5806 -0.5910 -0.4432
0.9941 -1.2026 -0.5759
0.8492 -1.3131 -0.3683
0.4437 -1.2142 -1.0031
0.4467 -1.2696 -1.0716
0.2901 -1.1929 -1.1752
0.8186 -1.1815 -0.3884
0.3294 -1.2311 -1.1909
0.6527 -1.0334 -1.7588
0.7033 -0.7292 -1.6448
0.3302 -1.2270 -0.8640
0.3303 -1.1904 -0.8001
0.3344 -1.3273 -0.7932
0.4849 -1.2580 -0.9593
0.7723 -1.3240 -0.8762
0.6552 -1.2950 -0.6041
2.0360 -1.3309 -2.2298
1.2410 -0.9062 -1.2550
0.8344 -1.2476 -0.4915
0.6093 -1.2342 -2.0784
0.2111 -1.2779 -1.0629
0.2636 -1.2397 -1.1534
0.2099 -1.2704 -1.0267
0.5633 -0.7065 -1.4844
0.7244 -1.3521 -2.2610
0.5122 -1.1834 -1.6045
0.6147 -1.1663 -1.5648
0.2436 -1.2468 -0.8014
0.7376 -0.9089 -1.8589
0.3444 -1.2797 -0.8682
0.6611 -1.0883 -1.3500
0.6024 -1.4203 -1.2666
1.0119 -1.2530 -0.6681
1.1121 -1.2536 -0.8649
0.6735 -1.2137 -1.1572
0.8498 -1.2705 -0.6243
0.4641 -1.7110 -0.6583
1.1718 -1.1280 -1.2964
1.1496 -1.0597 -1.3545
0.6439 -1.2688 -0.6555
1.1327 -1.1918 -1.3309
0.8853 -1.2207 -0.9936
1.3504 -1.2090 -1.9187
0.7133 -1.3329 -0.7910
0.4493 -1.3197 -0.8852
0.6643 -1.1988 -0.4300
0.3732 -1.1666 -1.2245
0.5970 -1.1497 -1.1244
1.0791 -1.2661 -0.6057
0.5804 -1.1845 -1.5275
0.3394 -1.2181 -0.9362
0.6237 -1.2257 -1.2517
0.4744 -1.2092 -0.8779
0.7770 -1.1605 -0.8877
1.0281 -1.4027 -1.1216
0.9566 -1.3288 -0.9406
1.0477 -1.2028 -0.7061
0.6433 -0.8074 -0.4550
0.1588 -1.2578 -0.9793
0.3345 -1.3021 -1.3934
0.9938 -1.2092 -0.9201
1.4686 -1.0524 -1.3978
0.6155 -1.1170 -1.9057
0.4055 -1.2038 -1.3051
0.2767 -1.3033 -0.9404
0.4058 -1.2736 -1.2433
1.1904 -1.0669 -1.4237
0.2969 -1.2089 -0.9401
0.7898 -1.0909 -1.9741
0.7756 -1.0672 -1.9221
1.2236 -0.9668 -1.2578
0.4085 -1.2514 -1.0069
0.8355 -1.8911 -0.8788
0.7764 -1.3166 -1.4253
0.8983 -1.3314 -1.3101
0.8992 -1.2281 -0.6128
2.0163 -2.9769 -1.0726
0.7716 -1.2204 -1.1563
1.1842 -1.2398 -1.7571
0.7923 -1.3044 -1.4077
1.2929 -1.0942 -1.9047
0.4524 -1.3621 -1.8535
0.4798 -0.6469 -1.3414
0.2405 -1.2514 -1.0744
0.7635 -1.2812 -1.2069
0.7668 -1.3631 -0.9165
1.1341 -1.9400 -1.2720
0.5183 -1.2443 -1.5802
0.9430 -1.3288 -2.1517
1.1744 -1.2182 -1.1156
0.5668 -1.2709 -1.3367
0.4111 -1.1225 -1.2363
0.2297 -1.2426 -1.1730
0.4789 -1.2928 -1.9554
0.2987 -1.2563 -1.3288
0.4194 -1.3211 -1.6581
0.6355 -1.2075 -1.9229
0.8075 -1.2324 -1.7630
1.1761 -1.1926 -1.8576
0.6153 -1.3474 -0.8669
0.9539 -1.2336 -1.3976
1.1341 -1.1880 -1.5210
0.9899 -1.2233 -1.0205
1.2586 -0.9579 -1.2272
1.4783 -1.0557 -1.3441
1.2685 -1.0964 -1.0724
1.3071 -1.0544 -1.0958
1.0942 -1.0101 -1.1340
1.3013 -0.9958 -1.2407
0.3621 -0.8789 -1.7852
0.2741 -1.1573 -1.7586
0.4211 -0.6575 -1.6752
1.1629 -1.0130 -1.1673
0.2764 -1.1580 -1.6432
0.3884 -0.8486 -1.6750
1.2137 -1.1642 -1.2749
1.2113 -1.1588 -1.4507
0.2949 -1.2277 -1.7906
0.4512 -0.6625 -1.6436
0.3975 -0.8843 -1.6900
0.4279 -0.8292 -1.6689
0.4866 -0.7535 -1.6586
0.4803 -0.9004 -1.7425
0.2664 -1.2689 -1.5334
0.3426 -0.7885 -0.9166
1.4155 -1.4390 -1.0369
0.5747 -1.1968 -1.6652
1.2810 -1.6898 -0.8681
1.1934 -0.7528 -1.2025
0.4058 -1.2710 -1.1057
1.2126 -1.3431 -1.1014
0.4362 -1.2308 -1.0364
0.4336 -1.2582 -0.9145
0.2943 -1.1666 -1.6263
0.1973 -1.2591 -1.3290
0.4914 -0.4280 -0.8426
0.2131 -1.2650 -1.3482
0.6823 -1.1554 -1.1990
0.2814 -1.2902 -1.5859
0.9105 -1.1712 -1.5751
0.8261 -1.2599 -1.2633
0.4115 -1.2480 -1.4887
0.3065 -1.2160 -1.3758
0.8402 -0.9685 -0.7932
0.7410 -0.9837 -1.0609
0.2458 -1.2493 -1.4698
0.5931 -0.6598 -0.8303
0.8764 -1.1514 -1.2410
0.7965 -1.2640 -1.3794
0.4243 -0.6620 -1.6490
0.2223 -1.3515 -1.4286
0.4624 -0.8046 -1.6899
0.4396 -0.8890 -1.6385
0.5131 -0.6368 -1.5929
0.5169 -0.7669 -1.6645
0.3481 -1.1953 -1.4427
0.6524 -0.7676 -1.7117
0.7628 -1.1044 -0.9517
1.0256 -1.0061 -1.2794
1.0901 -1.1699 -1.2868
0.9277 -1.4039 -0.9459
1.0921 -1.3480 -1.1124
1.2120 -1.2261 -1.2661
1.1962 -0.9757 -1.3142
1.3002 -0.9595 -1.3513
0.4472 -0.7109 -1.6523
0.1427 -0.9704 -2.2001
-0.1528 -1.6844 -2.2391
0.1264 -1.8957 -1.4930
0.6940 -2.4971 -1.4848
1.5355 -1.1330 -1.5641
1.2494 -1.2675 -2.3118
0.7877 -1.3271 -1.1615
1.3593 -1.2816 -2.4114
1.1591 -1.2209 -2.0396
1.1749 -1.7958 -2.0052
1.1797 -1.1936 -1.4555
0.7662 -0.8402 -1.7961
1.2233 -1.2052 -1.4957
1.3477 -1.1218 -1.1375
1.2951 -1.1091 -1.1164
1.3008 -1.1275 -1.1494
1.2005 -1.0368 -1.2445
1.2254 -1.1076 -1.2313
1.2244 -1.1985 -1.2175
1.1854 -1.0444 -1.2672
1.1886 -0.9835 -1.3154
0.4053 -1.1376 -1.8301
1.2827 -1.1431 -1.4798
1.2201 -1.2063 -1.4020
1.1532 -1.2494 -1.4354
0.9240 -1.2421 -1.8922
0.6689 -1.4724 -1.8832
0.6603 -1.1543 -2.0947
0.5702 -1.1211 -1.7662
1.2652 -0.9873 -1.0509
0.9891 -1.2214 -0.8114
0.9809 -1.1605 -0.8438
1.1678 -0.8696 -1.3038
1.2249 -1.0561 -1.3245
1.1117 -1.2908 -1.0550
1.1160 -1.2715 -1.1096
1.1758 -1.1773 -1.3185
0.4108 -1.3588 -1.9419
1.1284 -1.3268 -1.3510
0.6157 -1.2477 -1.4238
0.5608 -0.9548 -1.1605
0.4932 -1.3212 -1.7127
0.9214 -1.2652 -1.6082
0.2717 -1.2020 -0.9749
0.3328 -1.2572 -1.3141
0.7429 -1.2076 -1.5339
0.4696 -1.2887 -1.5248
0.8598 -1.2540 -1.2343
0.2417 -1.2679 -1.1343
1.0886 -1.2703 -0.9697
0.7471 -1.2907 -1.9699
0.3506 -1.2480 -1.5966
0.5424 -1.0367 -1.8482
0.9308 -1.2578 -1.0986
0.4483 -1.3385 -1.5624
1.0734 -1.2237 -1.1004
0.8843 -1.2697 -1.2332
0.6840 -1.2493 -1.4352
0.3695 -1.2332 -1.3125
0.3225 -1.2746 -1.0326
0.7936 -0.8956 -1.8694
0.7612 -1.3497 -1.6045
0.9032 -1.1818 -0.9144
1.1513 -1.0511 -1.2672
1.2650 -1.0839 -1.0856
1.2737 -1.2915 -0.9501
0.7752 -1.1102 -2.0342
0.9123 -1.2992 -1.9335
1.2440 -1.2261 -1.4386
1.8759 -1.2771 -1.8530
1.8075 -1.2351 -2.1699
1.2625 -1.2020 -1.5817
1.6900 -1.2609 -2.0073
1.7083 -1.2855 -1.8314
1.2655 -1.0627 -1.3693
0.8031 -1.3357 -1.2022
0.8025 -1.0898 -1.9242
1.3783 -1.1500 -1.0736
1.2472 -0.9899 -1.1425
1.2056 -1.1361 -1.2147
1.2869 -1.0501 -1.3980
1.2690 -1.3172 -1.4967
0.8567 -1.0266 -2.0475
1.3913 -1.0350 -1.1256
0.7973 -1.0858 -1.7580
0.6873 -1.3913 -1.4830
1.0036 -1.3482 -0.7756
0.7701 -1.4259 -1.3329
0.4022 -1.3658 -1.3549
0.7103 -1.3245 -0.8974
1.1085 -1.2964 -0.6896
0.7796 -1.2801 -0.8460
1.1735 -1.3436 -0.9938
1.0433 -1.2537 -0.9944
0.9250 -1.3125 -0.8439
0.8437 -1.4011 -1.7846
0.8938 -1.2160 -1.0411
1.1796 -1.0440 -1.2252
1.4032 -0.9285 -1.2613
0.8766 -1.2050 -1.8133
0.5962 -1.1126 -1.0954
0.6735 -1.1541 -1.2006
0.7537 -1.1904 -1.3711
1.0599 -1.0992 -1.4815
0.9443 -1.2775 -0.9911
1.1057 -1.2403 -1.0655
1.1458 -1.2213 -1.0885
0.9967 -1.2327 -0.8410
1.0155 -1.1722 -0.9039
1.0116 -1.2379 -0.8808
1.2557 -1.1139 -1.0921
1.1127 -1.2499 -0.9071
1.1371 -1.2441 -0.9164
1.1375 -1.2303 -0.8165
1.1931 -0.6970 -0.9926
1.2421 -0.8118 -1.0107
1.0010 -1.2686 -2.0286
1.1605 -1.2129 -1.3860
1.2145 -1.1941 -1.1848
1.2248 -1.0565 -1.1215
0.9726 -1.4674 -2.0294
0.9131 -1.7301 -2.0010
1.7951 -0.5731 -1.4878
1.2081 -1.2973 -1.5545
1.2360 -0.9650 -1.3703
1.6580 -0.5908 -1.5583
1.6425 -1.2013 -1.5402
1.7423 -0.6420 -1.5698
1.6121 -1.1898 -1.3896
0.8600 -1.4451 -1.9623
1.1961 -1.4132 -1.3893
1.2210 -1.3729 -0.9482
1.7981 -0.5998 -1.2851
0.7316 -1.3340 -2.2920
1.1938 -0.9591 -1.3543
1.0966 -1.2997 -1.0516
1.1830 -0.7850 -1.1388
1.8641 -0.5377 -1.3410
1.2962 -1.4003 -1.6306
1.2788 -1.2478 -1.0916
1.6958 -0.5927 -1.3332
1.7778 -0.5655 -1.4603
1.2177 -0.3417 -1.1928
1.1594 -1.0403 -1.1469
1.0528 -1.3309 -1.5957
1.1263 -1.2336 -1.6086
1.1398 -1.2392 -1.4090
1.0746 -1.1088 -1.2950
1.1862 -1.2039 -1.4286
1.1937 -1.1865 -1.4157
1.1752 -1.3535 -1.3997
1.1145 -1.2656 -1.3423
1.1254 -0.9343 -1.2321
1.2894 -0.9866 -1.3728
1.3715 -0.9940 -1.3756
1.2053 -1.2281 -1.1662
1.3296 -0.9786 -1.2413
1.3366 -0.4024 -1.2444
1.2793 -1.3358 -0.9023
0.9724 -1.2636 -1.5590
1.1442 -1.2605 -1.3439
1.1908 -0.9686 -1.3139
1.3730 -0.6229 -1.0513
1.7674 -0.5715 -1.4899
1.7705 -0.5645 -1.4086
1.6046 -0.5946 -1.3514
1.8083 -0.5787 -1.4492
1.5590 -0.5997 -1.3611
1.4998 -0.5934 -1.3634
1.5230 -0.5880 -1.3810
1.4967 -0.5876 -1.3837
1.4810 -0.5954 -1.3938
1.5027 -0.5879 -1.4112
1.5513 -0.5783 -1.4943
1.5118 -0.5652 -1.4799
1.5212 -0.5610 -1.5634
1.5263 -0.5828 -1.5382
1.3974 -1.2866 -1.9195
1.4756 -0.5853 -1.4109
1.4864 -0.6030 -1.3748
1.6596 -0.5809 -1.3262
1.2465 -1.3215 -1.7437
1.4542 -0.5572 -1.5700
1.7373 -0.5812 -1.2680
1.4640 -0.5883 -1.6280
1.2177 -1.0085 -1.3771
1.4894 -0.5850 -1.4809
1.4745 -0.5769 -1.4460
1.5019 -0.6034 -1.4544
1.2450 -0.6078 -1.2809
1.2861 -1.0165 -1.3012
1.1170 -0.6353 -1.0023
1.3520 -0.5555 -1.0338
1.3347 -0.4997 -0.9996
1.4776 -0.5533 -1.5200
1.3390 -0.7739 -1.3815
1.2709 -1.0063 -1.3064
1.3827 -0.5641 -1.0081
1.2583 -0.5537 -0.9579
1.9301 -0.5542 -1.0736
1.2178 -1.3115 -1.5189
1.2103 -1.4494 -1.5084
1.7378 -0.5876 -1.3082
1.6949 -0.5853 -1.5251
1.6842 -0.5302 -1.1310
1.2373 -1.1092 -1.4707
1.2294 -1.1234 -1.3342
1.5644 -0.6199 -1.4434
1.5892 -0.6158 -1.4413
1.5680 -0.6055 -1.3803
1.6037 -0.6667 -1.3933
1.6484 -0.6054 -1.3974
1.7354 -0.6031 -1.3377
1.2506 -0.5124 -1.0116
1.5039 -0.5755 -0.9800
2.0929 -0.6133 -1.0821
1.6931 -0.5556 -1.5280
1.1822 -0.9156 -1.2133
1.2238 -1.0477 -1.1849
1.1328 -1.3285 -1.1185
1.2689 -1.1606 -1.1493
1.4474 -0.5646 -0.9982
1.5573 -0.5841 -0.9544
1.5565 -0.5697 -0.9022
1.5366 -0.5885 -0.8828
1.2026 -0.5382 -0.8371
1.6145 -0.5766 -0.8603
1.2194 -0.5341 -0.8738
1.6411 -0.5615 -0.9079
1.9833 -0.5888 -1.0922
1.5987 -0.5732 -1.3438
1.6201 -0.5947 -1.3293
1.7583 -0.5919 -1.3021
1.3181 -0.6083 -0.9504
1.9859 -0.6002 -1.0664
1.2070 -0.5503 -0.8523
1.2447 -0.5725 -0.8377
1.5066 -0.5749 -0.8554
1.1853 -0.5667 -0.7997
1.6307 -0.5912 -0.8430
1.2602 -0.3212 -0.8830
1.8272 -0.6349 -0.7948
1.7192 -0.5879 -0.7978
1.6125 -0.5978 -0.7796
1.1555 -0.5655 -0.7421
1.1496 -0.5731 -0.7391
1.6904 -0.6023 -0.7671
1.2274 -0.5888 -0.7360
1.7621 -0.5793 -0.7704
1.7535 -0.6054 -0.7396
1.1365 -0.2040 -0.8764
1.1675 -0.5785 -0.6990
1.1657 -0.5766 -0.7080
1.3794 -0.5928 -0.9524
1.2355 -0.5859 -0.9017
1.3576 -0.5380 -0.9092
1.3388 -0.5694 -0.8989
1.6095 -0.5770 -0.9268
1.6657 -0.5549 -0.8652
1.4929 -0.5719 -0.8320
1.6627 -0.5745 -0.8031
1.8237 -0.5773 -0.8148
1.3003 -0.5896 -1.0370
1.2832 -0.5399 -0.7449
1.6779 -0.5616 -0.7257
1.7069 -0.5634 -0.7099
1.1254 -0.5834 -0.6747
1.7188 -0.5826 -0.6800
1.4629 -0.5360 -0.6887
1.7288 -0.5519 -0.6627
1.6619 -0.5496 -0.6625
1.5980 -0.5068 -0.6530
1.3429 -0.5671 -0.6204
1.3311 -0.5582 -0.6091
1.1051 -0.5600 -0.6332
1.1559 -0.5686 -0.6115
1.1360 -0.5691 -0.6591
1.3731 -0.5969 -1.0668
1.3260 -0.5760 -0.9330
1.2330 -0.5509 -0.8953
1.4163 -0.6016 -0.8643
1.3396 -0.5571 -0.8524
1.7133 -0.5501 -0.8405
1.5742 -0.5559 -0.8185
1.4463 -0.5544 -0.7668
1.6567 -0.5562 -0.7655
1.5387 -0.5454 -0.7646
1.4285 -0.5551 -0.7101
1.2032 -0.5579 -0.6934
1.2967 -0.3755 -0.7600
1.4383 -0.5488 -0.6754
1.6226 -0.5416 -0.6781
1.1278 -0.5755 -0.6550
1.2201 -0.5633 -0.6482
1.4958 -0.5544 -0.6470
1.6269 -0.5334 -0.6390
1.5958 -0.5581 -0.6272
1.4040 -0.5377 -0.6278
1.5376 -0.5410 -0.6232
0.9908 -1.1329 -0.9166
1.2824 -0.2454 -0.8525
1.3848 -0.5445 -0.9622
1.2810 -0.5498 -0.8833
1.3017 -0.5519 -0.8375
1.1579 -0.5487 -0.7851
1.1774 -0.5598 -0.7859
1.2800 -0.5364 -0.7287
1.3543 -0.5462 -0.7199
1.2992 -0.5472 -0.6885
1.5137 -0.5242 -0.6807
1.1862 -0.5815 -0.6288
1.0974 -0.5815 -0.5996
1.3367 -0.5597 -0.5888
1.6122 -0.5130 -0.5842
1.2832 -0.5548 -0.5833
1.3902 -0.5527 -0.5660
1.2769 -0.5513 -0.6241
1.4872 -0.5867 -0.8805
1.3626 -0.5861 -0.8613
1.3831 -0.5355 -0.8293
1.3458 -0.5283 -0.8097
1.4476 -0.5742 -0.8184
1.5045 -0.5738 -0.7866
1.3288 -0.5555 -0.7409
1.3143 -0.5563 -0.6428
1.3167 -0.5603 -0.5426
1.1958 -0.5468 -0.5546
1.4653 -0.5912 -1.0012
1.4777 -0.5422 -0.9831
1.2757 -0.5879 -0.9865
1.2185 -0.5537 -0.8802
1.1781 -0.5407 -0.5305
1.0231 -0.5491 -0.5033
1.4065 -0.5668 -0.9792
1.2652 -0.5594 -0.9620
1.3787 -0.5366 -0.7048
1.2936 -0.5341 -0.6903
1.4355 -0.5220 -0.6376
1.4953 -0.5100 -0.5748
1.4696 -0.5321 -0.5602
1.5199 -0.5834 -0.4712
1.4575 -0.5609 -0.4860
1.1805 -0.5387 -0.5932
1.5142 -0.5563 -0.9536
1.6401 -0.5606 -0.9041
1.6296 -0.5438 -0.8741
1.6320 -0.5572 -0.8625
1.7264 -0.5845 -0.8545
1.2330 -0.5476 -0.8374
1.6365 -0.5808 -0.8251
1.1861 -0.5561 -0.8142
1.2840 -0.5735 -0.5444
1.6331 -0.5733 -0.4144
1.2110 -0.5512 -0.5727
1.4883 -0.5658 -0.9710
1.2364 -0.5459 -0.9012
1.6646 -0.5498 -0.8680
1.7405 -0.5676 -0.8388
1.1854 -0.5559 -0.8390
1.7228 -0.5839 -0.7893
1.7155 -0.6091 -0.6981
1.7357 -0.6132 -0.6539
1.6918 -0.6068 -0.6651
1.6944 -0.5939 -0.5971
1.6819 -0.5715 -0.5479
1.6307 -0.6047 -0.4538
1.3512 -0.5762 -0.4816
1.5599 -0.5965 -0.3959
1.2943 -0.5750 -0.4517
1.5754 -0.5559 -0.9307
1.6606 -0.5607 -0.9026
1.7366 -0.5082 -0.8255
1.6569 -0.6490 -0.9554
1.5498 -0.5338 -0.8402
1.7413 -0.5575 -0.7962
1.6613 -0.5055 -0.7355
1.5834 -0.5412 -0.6983
1.3267 -0.6149 -0.5175
1.3751 -0.5772 -0.4941
1.5391 -0.5937 -0.4244
1.4538 -0.5662 -0.4120
1.8564 -0.7353 -0.9402
1.3648 -0.5588 -0.4567
1.2454 -0.5773 -0.4689
1.2630 -0.5536 -0.9570
1.4081 -0.5556 -0.9290
1.8741 -0.6882 -0.9069
1.8175 -0.5837 -0.8115
1.6326 -0.6269 -0.8296
1.6214 -0.5342 -0.8050
1.3689 -0.5784 -0.8148
1.7414 -0.5410 -0.7400
1.4168 -0.5325 -0.7139
1.3162 -0.5838 -0.6688
1.5402 -0.6010 -0.5729
1.6357 -0.5701 -0.5313
1.5629 -0.6033 -0.5469
1.4996 -0.5828 -0.5288
1.3991 -0.5752 -0.5577
1.5910 -0.5874 -0.3996
1.1914 -0.5743 -0.6701
1.1102 -0.5633 -0.5956
1.0729 -0.5859 -0.5639
1.0406 -0.5316 -0.5307
1.4088 -0.5320 -0.8840
1.6923 -0.5650 -0.8194
1.5658 -0.6033 -0.8093
1.5019 -0.5744 -0.7839
1.4182 -0.5608 -0.7372
1.5167 -0.6138 -0.6653
1.4010 -0.5843 -0.6990
1.4178 -0.5711 -0.6363
1.1417 -0.5546 -0.7145
1.4916 -0.6202 -0.6003
1.3965 -0.6016 -0.5759
1.6690 -0.5860 -0.4911
1.5673 -0.5946 -0.4818
1.6169 -0.5252 -0.4852
1.3716 -0.6269 -0.5135
1.3914 -0.5112 -0.5285
1.5283 -0.5520 -0.4190
1.5273 -0.5957 -0.3483
1.3303 -0.5290 -0.9136
1.2271 -0.5677 -0.8741
1.3215 -0.5296 -0.8225
1.2407 -0.5380 -0.7833
1.2133 -0.5430 -0.7270
1.4426 -0.5730 -0.4307
1.3952 -0.5667 -0.3585
1.1556 -0.5837 -0.5753
1.2650 -0.5648 -0.6619
1.2036 -0.5824 -0.5371
1.1120 -0.5608 -0.4845
1.1052 -0.5740 -0.4817
1.2812 -0.5273 -0.7263
1.5215 -0.5550 -0.8318
1.5191 -0.5847 -0.6197
1.4272 -0.5699 -0.6138
1.6136 -0.5969 -0.4966
1.5800 -0.5916 -0.4563
1.3988 -0.5704 -0.4417
1.3566 -0.5614 -0.4114
1.5252 -0.5604 -0.3237
1.3183 -0.5540 -0.7880
1.2742 -0.5475 -0.7629
1.2480 -0.5613 -0.7073
1.2283 -0.5644 -0.6355
1.2507 -0.5252 -0.5599
1.1542 -0.5960 -0.5263
1.6479 -0.6052 -0.5536
1.5710 -0.5563 -0.3131
1.3057 -0.5572 -0.9005
1.4485 -0.4859 -0.8374
1.2007 -0.5255 -0.8968
1.4598 -0.4975 -0.7082
1.2532 -0.5797 -0.6269
1.1466 -0.5859 -0.6420
1.1992 -0.5322 -0.6977
1.3455 -0.5792 -0.4512
1.3710 -0.5179 -0.8507
1.2439 -0.5439 -0.8901
1.4048 -0.5718 -0.8260
1.2097 -0.5412 -0.8264
1.5020 -0.6086 -0.5612
1.3436 -0.5665 -0.5780
1.3729 -0.5819 -0.4922
1.2223 -0.5986 -0.4508
1.2906 -0.5659 -0.7234
1.2645 -0.5290 -0.6596
1.1780 -0.5716 -0.4778
1.1912 -0.5634 -0.4422
1.5994 -0.5748 -0.7688
1.6978 -0.5389 -0.7270
1.6480 -0.5892 -0.7245
1.7739 -0.6100 -0.6795
1.6925 -0.6340 -0.6830
1.6156 -0.5805 -0.6731
1.6690 -0.5139 -0.6411
1.2900 -0.0837 -0.6386
1.4936 -0.5855 -0.2929
1.4306 -0.5752 -0.7713
1.2665 -0.5733 -0.8028
1.1708 -0.5812 -0.7399
1.0906 -0.5738 -0.5263
1.1597 -0.5884 -0.4455
1.3372 -0.5851 -0.6095
1.2404 -0.5270 -0.7111
1.1239 -0.5711 -0.4773
1.2592 -0.5797 -0.6237
1.2618 -0.5750 -0.5848
1.4731 -0.6062 -0.7605
1.5508 -0.5958 -0.6726
1.5807 -0.5902 -0.5852
1.1361 -0.5424 -0.7329
1.4606 -0.5801 -0.3925
1.1630 -0.5925 -0.6688
1.2415 -0.5759 -0.5893
1.1330 -0.5845 -0.5763
1.1109 -0.5764 -0.5164
1.5986 -0.5374 -0.6362
1.3770 -0.6117 -0.3390
1.3428 -0.2237 -0.5002
1.4485 -0.5971 -0.2764
1.3533 -0.5213 -0.7117
1.3192 -0.5846 -0.5861
1.3771 -0.5834 -0.4309
1.3159 -0.5823 -0.4664
1.1200 -0.5601 -0.5883
1.3445 -0.5861 -0.8875
1.2069 -0.5793 -0.4701
1.3659 -0.5841 -0.6681
1.4070 -0.5963 -0.8561
1.3427 -0.5396 -0.7558
1.5487 -0.5807 -0.5359
1.3237 -0.5504 -0.7780
1.2895 -0.5838 -0.7519
1.2552 -0.5717 -0.6981
1.2917 -0.6013 -0.5988
1.2625 -0.5658 -0.4708
1.3231 -0.5804 -0.3454
1.3177 -0.5877 -0.8994
1.5158 -0.5866 -0.6887
1.2274 -0.5828 -0.5564
1.3286 -0.5786 -0.4213
1.2807 -0.5898 -0.8111
1.1866 -0.5445 -0.5948
1.4229 -0.5947 -0.8145
1.3093 -0.5667 -0.6769
1.3931 -0.5891 -0.7572
1.3951 -0.5851 -0.7229
1.2865 -0.5437 -0.8746
1.2713 -0.5689 -0.7335
1.4174 -0.5911 -0.8147
1.4870 -0.5314 -0.7602
1.4138 -0.6070 -0.6833
1.2996 -0.6097 -0.5557
1.3746 -0.5649 -0.4837
1.3099 -0.5621 -0.5307
1.2014 -0.5842 -0.5281
1.3684 -0.6114 -0.8463
1.3059 -0.6027 -0.8770
1.4333 -0.5532 -0.8046
1.1412 -0.5431 -0.4776
1.4213 -0.4746 -0.5171
1.2157 -0.5991 -0.4830
1.4644 -0.5957 -0.2260
1.3519 -0.5992 -0.8141
1.2010 -0.5889 -0.7998
1.3524 -0.5905 -0.6371
1.2437 -0.5816 -0.6638
1.3647 -0.5930 -0.8412
1.4870 -0.5888 -0.7009
1.1994 -0.5909 -0.7251
1.4500 -0.5892 -0.6906
1.3511 -0.5679 -0.6846
1.3268 -0.5711 -0.6233
1.1822 -0.5860 -0.6175
1.6000 -0.5585 -0.6017
1.1489 -0.5781 -0.4913
1.3732 -0.5620 -0.9076
1.5708 -0.6362 -0.8301
1.7608 -0.5514 -0.7076
1.5746 -0.5830 -0.4492
1.3039 -0.5565 -0.4127
1.3498 -0.5961 -0.8853
1.3196 -0.3778 -0.4835
1.3764 -0.4043 -0.4145
1.4108 -0.4969 -0.6982
1.3103 -0.5461 -0.8202
1.4454 -0.4733 -0.5658
1.2047 -0.5249 -0.5569
1.3410 -0.5604 -0.5800

