0.4858 -0.5966 0.0871
0.5659 -0.5410 0.0611
0.4619 -0.5392 -0.0208
0.4502 -0.4963 0.1889
0.4752 -0.5861 0.0683
0.4072 -0.4951 -0.1265
0.3530 -1.0818 -0.4535
0.5283 -0.4724 -0.0772
0.4883 -0.4838 -0.1578
0.4840 -0.5049 -0.1684
0.4907 -0.4659 -0.1437
0.3866 -0.9511 -0.4228
0.5293 -0.4882 -0.1255
0.5328 -0.5836 -0.1539
0.4314 -0.5386 0.3063
0.5871 -0.5584 -0.0390
0.4900 -0.5237 -0.0234
0.4587 -0.5324 -0.1497
0.0044 -0.0206 0.0101
0.0529 -0.0372 0.0150
-0.0069 -0.0892 0.0348
0.0277 -0.0121 -0.0017
-0.0081 -0.0431 0.0012
0.0300 -0.0257 -0.0151
0.7183 -0.5453 -0.1449
0.5499 -0.5311 -0.2318
0.5518 -0.4920 0.2876
0.5940 -0.5775 -0.0372
0.4950 -0.4984 0.0886
0.5041 -0.5482 0.2959
0.5675 -0.5395 -0.1328
0.5479 -0.5299 -0.0487
0.5397 -0.5538 0.1991
0.5582 -0.5357 -0.1230
0.6016 -0.5934 0.1118
0.4259 -0.5227 0.2929
-0.1071 -0.4933 0.1337
0.0427 -0.2544 0.0512
0.0044 -0.0751 -0.0013
0.1166 -0.1060 -0.0398
0.0125 -0.1340 -0.0173
0.0543 -0.2609 -0.0447
-0.0014 -0.1229 0.0210
0.0325 -0.1368 -0.0379
-0.0330 -0.1551 0.0264
0.2131 -0.2477 0.0490
0.6279 -0.6191 0.3330
0.0437 -0.1625 -0.0067
0.5744 -0.5330 0.2378
-0.0384 -0.3107 0.0688
-0.0722 -0.3664 0.0062
0.1173 -0.3178 0.0709
0.4770 -0.5848 0.0721
0.4715 -0.5660 -0.1641
0.5249 -0.6153 -0.2869
0.8068 -0.6131 -0.0463
0.7405 -0.5587 -0.0366
0.7968 -0.5748 -0.1298
0.5805 -0.5734 0.2103
0.4902 -0.5488 -0.1727
0.6126 -0.5776 -0.1634
0.4889 -0.5951 -0.1579
0.5051 -0.5557 0.1562
0.5679 -0.5801 0.1722
0.7484 -0.5699 0.0838
0.7300 -0.5590 0.1076
0.6863 -0.6098 -0.1907
0.4831 -0.5839 -0.1574
0.6332 -0.5849 0.2610
0.5692 -0.5840 0.2092
0.7419 -0.5429 -0.0309
0.5963 -0.5725 0.0970
0.6008 -0.5779 -0.1344
0.6683 -0.5341 0.2065
0.5214 -0.5613 -0.2656
0.6474 -0.6271 -0.2658
0.6256 -0.5949 -0.0878
0.4532 -0.4844 0.0310
0.5068 -0.5396 -0.0268
0.6652 -0.5742 0.3260
0.8042 -0.5747 -0.1815
0.6027 -0.4882 0.0228
0.0396 -0.2904 0.0992
0.0623 -0.0659 -0.0110
0.4923 -0.5739 -0.0250
0.3519 -0.2732 -0.1598
0.6495 -0.5987 -0.0688
-0.0291 -0.5894 0.0389
0.6723 -0.5829 0.0272
0.5891 -0.5983 0.3146
0.6532 -0.5799 -0.1804
0.2290 -1.0602 -0.5381
0.4185 -1.0196 -0.5174
0.8276 -0.5939 -0.2060
0.8233 -0.6008 -0.2505
0.6119 -0.4657 -0.0778
0.7975 -0.5979 -0.3158
0.4985 -0.5698 -0.1059
0.2871 -1.0860 -0.5304
0.2809 -1.4472 -0.6562
0.2515 -1.4165 -0.6476
0.7906 -0.6118 -0.0079
0.7061 -0.5968 0.1633
0.6158 -0.5808 0.1191
0.7231 -0.5803 0.0834
0.4217 -0.4858 0.0711
0.4277 -1.0619 -0.4812
0.3140 -1.1586 -0.5130
0.3156 -1.1877 -0.5088
0.8499 -0.5835 -0.1758
0.7917 -0.6011 0.2165
0.8098 -0.6133 0.1956
0.7482 -0.5917 0.0404
0.7892 -0.6103 0.1541
0.5803 -0.5868 0.1017
0.7539 -0.5800 0.1110
0.6380 -0.5900 -0.3209
0.5930 -0.5919 -0.3180
0.8188 -0.6146 -0.2723
0.6022 -0.5713 -0.2252
0.6259 -0.5923 -0.2104
0.6190 -0.5747 -0.1793
0.8061 -0.5685 -0.1722
0.8282 -0.5965 0.0481
0.6096 -0.5789 0.0224
0.8058 -0.5808 0.0267
0.6164 -0.5695 -0.1273
0.6120 -0.5664 -0.0884
0.7782 -0.5816 -0.0604
0.6510 -0.5818 -0.0271
0.8051 -0.5942 0.2561
0.9977 -0.5451 -0.3779
0.5801 -0.5771 -0.2638
0.8886 -0.6039 0.3500
0.7985 -0.5845 -0.3975
0.8373 -0.4814 -0.3332
0.6280 -0.5827 -0.1547
0.5956 -0.5792 -0.0061
0.5980 -0.6024 -0.0404
0.7560 -0.5773 -0.1322
0.5650 -0.5804 -0.1344
0.5849 -0.5833 -0.0650
0.4841 -0.5774 0.1367
0.5491 -0.5888 0.2402
0.6525 -0.5985 0.3284
0.6137 -0.5966 0.2812
0.7999 -0.6053 0.2396
0.7739 -0.5981 0.0563
0.7127 -0.5932 0.0881
0.5534 -0.5829 0.1106
0.8760 -0.6153 0.3399
0.8163 -0.5916 0.3017
0.8792 -0.6182 0.2763
1.0094 -0.6055 -0.2649
0.5787 -0.5907 0.1890
0.8271 -0.6029 0.2064
0.8623 -0.5972 0.0767
1.0300 -0.6047 -0.1418
0.5924 -0.5911 -0.0170
0.7537 -0.5673 -0.0370
1.0008 -0.6044 -0.0658
0.8782 -0.5568 0.2837
1.0113 -0.6413 0.1250
0.7487 -0.5909 -0.2091
0.9556 -0.5521 -0.2053
0.8376 -0.5830 -0.3636
0.9109 -0.6080 0.3436
0.5828 -0.5652 -0.2506
0.5196 -0.5551 -0.1675
0.5902 -0.5704 -0.0929
0.5824 -0.5882 0.0715
0.5810 -0.6084 0.0874
0.7813 -0.5837 -0.2875
0.6475 -0.5868 -0.3703
0.9005 -0.5846 -0.3933
0.5846 -0.5568 -0.1413
1.0240 -0.5837 -0.0807
0.4286 -1.1426 -0.4723
0.2300 -1.1460 -0.3011
0.2333 -1.2205 -0.5400
0.5714 -0.5934 0.0184
0.5629 -0.5894 0.1640
0.7780 -0.6081 0.2829
0.6618 -0.5703 0.3219
0.4821 -0.5753 -0.4082
0.4739 -0.5396 -0.3325
0.4631 -0.5122 -0.3032
0.5491 -0.5719 -0.2590
1.0876 -0.6149 0.3355
0.4945 -0.5799 -0.4031
0.7239 -0.5366 -0.2652
0.5223 -0.5865 -0.2643
0.2020 -1.3057 -0.6027
0.6114 -0.5668 -0.3361
0.9439 -0.5907 -0.2702
0.6223 -0.5903 0.0430
0.5911 -0.6031 0.1513
0.5819 -0.5732 0.1857
1.0394 -0.6231 0.2797
0.5978 -0.5961 0.2498
0.6783 -0.6130 0.3552
0.8102 -0.5878 -0.1398
0.5960 -0.5691 -0.0838
0.7454 -0.5735 0.1608
0.6011 -0.5985 0.2196
0.7217 -0.5682 -0.3209
0.7604 -0.5838 -0.3804
0.6419 -0.5838 0.2209
0.8175 -0.6136 0.3504
0.0422 0.1210 -0.0458
0.0056 0.0829 -0.0593
0.0170 0.1108 -0.0178

