0.1083 -0.2031 0.0716
-3.1791 -9.1517 0.8255
-2.3728 -25.2389 2.8468
-7.8288 -18.8471 0.4571
-2.4937 -36.1524 2.5667
-10.8442 -33.1611 -2.3571
-13.2867 -28.2544 3.0021
-13.2262 -65.1244 -6.2179
-20.2251 -26.4779 -1.6518
-13.0626 -34.5927 -2.2034
-17.6112 -35.8116 -5.5799
-11.4857 -29.5469 4.2020
-13.4170 -36.8134 -3.0105
-22.3347 -60.8328 -10.7229
-38.8229 -83.6153 -6.6751
-39.5980 -85.9110 -10.3822
-1.2716 -54.3256 12.4124
-17.6689 -47.4455 -5.4042
-21.0813 -46.6344 -10.5177
-28.8517 -39.8242 -12.6529
-7.4639 -95.8844 1.9978
-14.5722 -62.8306 -5.5608
-30.0550 -37.4392 -12.9722
-7.3529 -94.6055 4.1298
-36.9134 -74.7645 -7.9604
-59.2836 -68.2025 -14.5715
-38.6950 -64.6041 -18.8506
-42.1892 -79.0556 4.5563
-6.3605 -89.6177 2.3138
-48.3629 -81.1367 -5.4619
-5.5666 -82.4696 -28.3909
-37.9564 -82.5595 -7.1472
-49.3706 -63.3399 -12.2663
-43.6653 -67.4789 -12.4672
-32.1886 -54.7393 -33.9636
-31.9676 -76.2195 -6.7084
-43.2152 -71.7790 -22.5066
-25.3345 -81.0708 -19.7990
-18.4385 -85.1916 -33.5408
1.1670 -92.4116 -34.6306
-47.9119 -71.9148 -10.9298
-38.5109 -83.7414 -7.7381
-32.7916 -76.7440 -23.8226
5.6314 -95.4986 -36.2515
-32.0360 -87.9330 -5.9568
-19.7971 -80.2183 -37.0280
-42.8741 -79.7482 -11.1592
-60.8362 -60.4090 -16.3827
-27.9954 -54.6334 -35.2637
-51.7699 -61.3485 -13.3239
-42.6853 -81.8446 -10.1518
-39.0322 -56.8105 -35.4791
-35.1734 -66.3480 -40.1670
-12.5448 -86.2386 -36.8577
6.9120 -5.8656 10.1506
10.7582 -75.9377 -43.1973
-24.3330 -51.8752 -26.6389
1.0091 -9.7085 12.5174
-36.1098 -22.9065 -6.3066
1.6245 -9.9610 13.5341
-39.5061 -21.8925 -48.6908
-7.4398 -10.6377 -1.4862
-147.9589 -68.9745 -83.2895
-101.5972 -113.0712 -52.4754
-65.9025 -173.4714 -59.1443
-23.8871 -52.6934 -36.1434
0.1721 -0.6547 0.2063
0.1368 -0.0248 0.0380
0.1975 -0.3080 0.0683
0.1621 -0.6734 0.5121
0.2488 -0.6227 0.3447
0.1291 0.0225 0.0093
0.1461 -0.0121 0.0051
0.2752 -0.6691 0.4121
0.1634 -0.8069 0.5449
0.0001 -0.4722 0.2780
-0.0334 -0.6534 0.3789
-0.0544 -0.6919 0.4040
0.2203 -0.6586 0.2756
0.1704 -0.6573 0.2015
0.4890 -0.6043 0.8633
0.0429 -0.6099 0.0611
-0.6162 -1.1266 1.2960
-0.4788 -0.8755 1.1007
-0.0130 -0.6384 0.3641
-0.4645 -0.6985 0.7743
-0.4480 -0.5718 0.9866
-0.6235 -0.8401 0.9396
-0.3991 -0.5199 0.5566
-0.2891 -0.2818 0.6317
-0.5662 -0.7658 0.7238
-0.2750 -0.2486 0.3487
-0.4854 -0.6409 0.5996
0.0235 -0.5772 0.0648
-0.5932 -0.7532 0.6459
-0.4858 -0.7636 1.0301
-0.5230 -0.9496 1.3993
-0.5652 -0.6198 1.1812
-1.0859 -1.3690 1.2387
0.0115 -0.8143 0.3988
-0.1300 -0.6453 0.2584
-0.1412 -0.6361 0.2242
-0.2399 -0.2412 0.0735
-0.2562 -0.2542 0.0741
-0.0185 -0.8576 0.4639
-0.0397 -0.5875 0.3330
-0.0422 -0.5914 0.3583
0.1206 -0.0041 0.0225
-0.9101 -1.0942 1.1364
-0.5163 -0.7136 1.2044
-0.4702 -0.5427 1.0596
-0.5231 -0.6299 1.1280
-0.5466 -0.5625 1.1011
-0.7895 -0.9095 0.6401
-0.8294 -0.6128 1.0377
-0.6780 -0.6867 1.0369
-0.2521 -0.1528 0.3625
-0.4556 -0.9221 1.0876
-0.4381 -0.7629 1.3835
-0.7308 -0.9167 1.0042
-0.7648 -0.9587 1.0164
-0.7731 -1.2449 0.1529
-0.8288 -1.2659 0.1738
-0.8016 -0.6011 1.1384
-0.4998 -0.7208 1.2875
-0.0293 -0.9071 0.7743
-0.2425 -0.1005 0.2202
-0.9893 -1.3339 1.4145
-0.2791 -0.2343 0.3164
-0.9412 -0.6552 1.0442
-0.1512 0.0129 0.1400
-0.1397 0.0077 0.1100
-0.1656 -0.0001 0.1688
-0.2061 -0.0628 0.1345
-0.0496 -0.5665 0.3176
-0.2626 -0.1798 0.4726
-0.5380 -0.9149 1.2390
0.0198 -0.6929 0.3602
-0.4751 -0.9625 1.1354
-0.0059 -0.6406 0.3667
0.5828 -1.0838 1.7861
0.2171 -0.6490 0.4409
0.8217 -1.3077 2.0230
0.9992 -1.4921 2.6192
0.8284 -1.3274 2.1533
0.1789 -0.5809 0.1577
0.2502 -0.6198 0.2808
0.2793 -0.6187 0.3331
0.4146 -0.5002 1.0372
0.1765 -0.6059 0.1888
0.8893 -0.8227 1.5242
0.3022 -0.5944 0.3305
0.2928 -0.4805 0.2558
0.3145 -0.6055 0.3386
1.4545 -1.1023 1.5639
0.4778 -0.6023 0.1489
0.4144 -0.6097 0.0893
0.5317 -0.6114 0.2135
0.4393 -0.5624 0.1487
0.4072 -0.5971 0.1034
0.3448 -0.6150 0.0321
0.4844 -0.6119 0.1874
0.3541 -0.6108 0.0477
0.1789 -0.0104 0.0885
0.3104 -0.6203 0.3622
0.2228 -0.5872 0.2508
0.1855 -0.5690 0.2351
0.1644 -0.6128 0.1995
0.6070 -0.4093 1.0354
0.4974 -0.6327 0.0198
0.4378 -0.5956 0.0842
0.3557 -0.6085 0.0184
0.3873 -0.6195 0.0865
0.5418 -0.6319 0.2503
-0.5402 -0.7390 1.4442
0.1671 -0.0910 0.3321
0.3832 -0.6571 0.3027
0.9104 -0.8121 1.5612
0.9813 -0.7135 1.7107
0.4660 -0.6050 0.1177
0.3581 -0.6163 0.0247
0.3955 -0.6124 0.0702
0.2815 -0.5959 -0.0219
0.5014 -0.6148 0.1829
0.5679 -0.6184 0.2713
0.4529 -0.6303 0.1664
0.3975 -0.6147 0.2219
0.2656 -0.3365 0.1518
0.3924 -0.6119 0.4302
0.3656 -0.5984 0.3978
0.1777 -0.6135 0.1960
0.4053 -0.6217 0.0684
0.4302 -0.5996 0.2561
0.2329 -0.6133 0.2881
0.6540 -0.6410 0.1074
1.0235 -1.0397 1.5805
0.2737 -0.5216 0.1535
0.2960 -0.6250 0.3405
0.4126 -0.6490 0.1441
0.4755 -0.6177 0.2370
0.2103 -0.6313 0.2617
0.2438 -0.6243 0.3303
0.2714 -0.6484 0.1160
0.1652 0.0244 0.0223

