-0.1918 -0.6603 1.1312
-0.5114 -0.6448 1.1078
-0.4398 -0.6847 0.7915
-0.4759 -0.6516 1.0726
-0.4090 -0.6828 0.7892
-0.3826 -0.6512 0.7797
-0.4325 -0.6549 1.0884
-0.3629 -0.6942 0.8137
0.0579 -0.6820 0.9359
-0.0098 -0.6415 0.9458
0.0149 -0.6391 0.9459
-0.3122 -0.6656 1.1338
-0.0310 -0.6422 0.9158
-0.2768 -0.6468 0.9108
-0.0670 -0.6584 0.8389
-0.0593 -0.6779 0.8243
-0.0416 -0.6804 0.8882
-0.1189 -0.6472 1.1394
-0.2234 -0.6400 0.7715
-0.1197 -0.6412 0.8164
-0.1138 -0.6523 0.7959
-0.2300 -0.6643 1.0079
-0.1403 -0.6590 0.7996
-0.1705 -0.6817 1.1715
-0.2427 -1.5368 0.0099
-0.4760 -0.6719 0.9443
-0.3917 -0.6701 1.0378
-0.3806 -0.6606 1.1122
-0.0923 -0.6606 0.8377
-0.3307 -0.6847 0.9324
-0.2515 -0.6352 1.0832
0.0345 -1.4406 0.4659
-0.4967 -0.6715 0.7369
-0.5312 -0.6702 0.9049
-0.5191 -0.6344 0.9077
-0.4962 -0.6677 0.8928
0.0005 -0.6525 0.8990
0.0100 -0.6718 0.8856
-0.0172 -0.6874 1.0553
-0.1881 -0.6945 0.9679
-0.2982 -0.6430 0.7578
-0.2455 -0.6386 0.8785
-0.2334 -0.6427 0.8285
-0.2278 -0.6387 0.7970
-0.2698 -0.6481 0.8838
-0.1524 -1.6698 0.5299
-0.3638 -0.6522 1.0404
-0.1259 -0.6571 0.8849
-0.3435 -0.6896 0.8477
-0.4437 -0.6743 0.8351
-0.4657 -0.6808 0.9734
-0.4208 -0.6948 0.8310
-0.2430 -0.6616 1.1250
-0.1002 -0.6568 0.8890
-0.2670 -0.6688 1.1644
-0.0092 -1.3247 0.4757
-0.4734 -1.2987 0.0674
-0.3112 -0.6485 1.1534
-0.2894 -0.6689 1.1440
-0.3344 -0.6715 1.1143
-0.2138 -0.6417 1.0955
-0.1298 -0.6522 0.9066
-0.3779 -0.6641 1.0932
-0.0816 -0.6387 0.9036
-0.4145 -0.6965 0.9306
-0.2376 -0.6729 1.0864
-0.3190 -0.3157 0.5006
-0.5651 -0.5951 0.8391
-0.1782 -0.1525 0.2854
-0.5683 -0.6551 0.8765
-0.5117 -0.6442 0.9814
-0.3969 -0.6840 0.8582
-0.2837 -0.6514 1.1388
-0.0025 -0.6588 0.9356
-0.3304 -0.6751 0.7809
-0.1741 -0.6487 0.8170
-0.2239 -0.6604 1.1958
-0.3482 -0.6381 0.7439
-0.3822 -0.6408 0.9454
-0.4134 -0.6482 1.1428
-0.5912 -0.6680 0.8128
-0.2492 -0.3560 0.4974
-0.4859 -0.6515 1.2295
-0.5527 -0.6580 0.8925
-0.4628 -0.6299 1.1568
-0.2729 -0.6417 0.7613
-0.2812 -0.6457 0.7935
-0.5085 -0.6602 0.7910
-0.4645 -0.6417 1.1493
-0.2663 -0.6437 0.8517
-0.3137 -0.6524 1.1072
-0.4527 -0.6534 1.0799
-0.4799 -0.6338 1.1044
-0.2287 -0.6511 1.2139
-0.5054 -0.5667 1.0008
-0.5904 -0.6534 0.8696
-0.5690 -0.6599 0.8614
-0.2519 -0.6480 0.7741
0.3146 -1.3108 0.8541
-0.5298 -0.6465 1.0280
-0.1664 -0.4242 0.6101
-0.1829 -0.6444 0.8952
-0.1865 -0.6437 0.9215
-0.5189 -0.6437 1.0880
-0.1081 -0.6492 0.9138
-0.3717 -0.6557 0.8725
-0.4337 -0.6530 0.9519
-0.0597 -0.6420 0.9398
-0.3653 -0.6490 1.2771
-0.4077 -0.6614 1.1020
-0.1077 -0.6270 1.0273
-0.4411 -0.6536 1.2705
-0.0874 -0.6269 1.0576
-0.5054 -0.6614 1.0013
-0.4609 -0.6383 1.2424
-0.5191 -0.6589 1.2648
-0.5831 -0.5920 1.1224
-0.4626 -0.6388 1.1262
-0.0761 -0.6099 0.9542
-0.2451 -0.6454 1.2909
-0.5684 -0.6322 1.0908
-0.4000 -0.6493 0.7444
-0.6384 -0.6051 1.0320
-0.4914 -0.6415 1.2677
-0.4697 -0.6496 1.2854
-0.6052 -0.6189 1.0614
-0.4174 -0.6433 1.2870
-0.3413 -0.6410 0.8347
-0.3454 -0.6428 0.8636
-0.3511 -0.6470 0.8954
-0.3341 -0.6315 0.8595
-0.3175 -0.6425 0.9854
-0.2943 -0.6415 0.9884
-0.7205 -0.6339 0.9723
-0.2673 -0.6515 1.1145
-0.1846 -0.6314 1.0239
-0.1897 -0.6329 1.0521
-0.1554 -0.6463 0.8740
-0.1310 -0.6288 0.9717
-0.1348 -0.6347 1.0369
-0.3694 -0.6607 1.0010
-0.0626 -0.6485 1.0958
-0.6780 -0.6438 0.9951
-0.0860 -0.6489 0.9451
-0.6669 -0.6682 1.0076
-0.3973 -0.6498 0.8614
-0.3127 -0.6498 0.8207
-0.6569 -0.6407 1.0236
-0.1120 -0.6474 0.9384
-0.3610 -0.6549 1.1022
-0.0199 -0.6738 1.0527
-0.2872 -0.6477 0.8232
-0.3616 -0.6529 1.2559
-0.2887 -0.6355 0.9556
-0.1977 -0.6418 1.1193
-0.6458 -0.6675 1.0392
-0.2241 -0.6454 1.1207
-0.7532 -0.6624 1.0736
-0.3519 -0.3654 0.7408
-0.0594 -0.6441 1.0621
-0.7001 -0.6304 1.1438
-0.2913 -0.6250 1.0923
-0.3938 -0.2788 0.5336
-0.4528 -0.4385 0.7553
-0.6418 -0.6389 1.0614
-0.6104 -0.6227 0.9279
-0.3708 -0.6810 0.8850
-0.3943 -0.6431 1.1500
-0.7135 -0.6386 0.9010
-0.7102 -0.6824 0.9295
-0.1726 -0.6378 1.2912
-0.1643 -0.3671 0.6398
-0.3119 -0.2356 0.4083
-0.4520 -0.3587 0.5546
-0.7529 -0.6324 0.9964
-0.1820 -0.6429 0.8655
-0.5217 -0.6079 1.0072
-0.3646 -0.6395 1.1255
-0.3198 -0.6509 1.3156
-0.1304 -0.6409 0.8706
-0.1449 -0.6194 1.2109
-0.2922 -0.6413 1.1440
-0.0445 -1.4088 0.4069
-0.5822 -0.6090 0.9108
-0.4645 -0.6302 0.9978
-0.4363 -0.6537 1.1155
-0.2976 -0.6505 0.8833
-0.2974 -0.5694 1.0415
-0.0504 -0.6514 1.3392
-0.0912 -0.6094 0.9493
-0.5949 -0.6292 0.7733
-0.0011 -0.6567 1.0586
-0.1536 -0.3369 0.5908
-0.1404 -0.5699 1.0152
-0.4968 -0.5942 0.9852
-0.5600 -0.6374 0.9042
-0.6934 -0.6010 0.8775
-0.1321 -0.6583 0.9195
-0.2322 -0.1132 0.3015
-0.3149 -0.6273 1.0920
-0.2582 -0.2711 0.6272
-0.0045 -0.6582 1.0894
-0.4794 -0.6498 1.0763
-0.3430 -0.6496 1.1474
-0.3886 -0.6367 1.1195
-0.0801 -0.6630 0.9323
0.0074 -0.6355 1.0875
-0.3148 -0.1569 0.3421
-0.3329 -0.2770 0.5680
-0.0514 -0.6560 1.0407
-0.2750 -0.2810 0.4988
-0.2917 -0.6334 0.9521
-0.2359 -0.2142 0.5352
-0.0318 -0.6300 0.9881
-0.3005 -0.1791 0.3250
-0.0953 -0.5818 1.0395
-0.0400 -0.5979 1.0751
-0.4024 -0.2609 0.5773
-0.0617 -0.6003 1.0755
-0.0223 -0.5860 1.0606
-0.3127 -0.1709 0.3986
-0.2993 -0.1694 0.3986
-0.3034 -0.1712 0.4231
-0.2936 -0.0828 0.2416
-0.2316 -0.1889 0.4836
-0.4423 -0.6416 1.0677
-0.2081 -0.6636 1.0365
-0.3822 -0.2185 0.3803
-0.5276 -0.6120 0.8734
-0.3323 -0.1684 0.3537
-0.3901 -0.6238 0.9742
-0.6823 -0.6371 1.0170
-0.1837 -0.5690 1.0054
-0.4331 -0.6222 1.2163
-0.4514 -0.6186 1.1791
-0.3697 -0.5193 1.0428
-0.6531 -0.6308 0.8756
-0.1734 -0.2568 0.5160
-0.1892 -0.2237 0.4758
-0.3074 -0.0552 0.1994
-0.2635 -0.1503 0.2757
-0.0562 -0.6417 0.9112
-0.6606 -0.6037 0.8329
-0.3411 -0.6433 0.9821
-0.3342 -0.6704 1.2655
-0.4779 -0.6406 1.1879
-0.3814 -0.3655 0.7029
-0.3184 -0.5811 0.7947
-0.2830 -0.0649 0.2417
-0.1677 -0.5838 0.9300
-0.2316 -0.5666 0.9954
-0.6984 -0.5989 0.9298
-0.6724 -0.5975 0.9028
-0.2512 -0.1206 0.3068
-0.4941 -0.6685 0.8309
-0.4919 -0.6430 0.8566
-0.3660 -0.6665 0.8282
-0.3461 -0.6156 0.8295
-0.4686 -0.3395 0.5462
-0.3153 -0.1760 0.4477
-0.3091 -0.0531 0.2228
-0.3114 -0.0561 0.2223
-0.3108 -0.0586 0.2289
-0.3173 -0.0148 0.1722
-0.3059 -0.0559 0.1960
-0.5062 -0.6473 1.1940
-0.3070 -0.0125 0.1721
-0.3058 -0.0128 0.1707
-0.4698 -0.6198 1.0127
-0.0129 -0.5513 0.8307
-0.1452 -0.3435 0.6527
-0.5481 -0.6430 0.9700
-0.5002 -0.6096 0.8673
-0.7465 -0.6443 0.9356
-0.0980 -0.5897 0.8196
-0.5427 -0.5963 0.8448
-0.7139 -0.6076 0.9903
-0.1554 -0.5619 0.7977
-0.3203 -0.2587 0.5910
-0.2159 -0.3297 0.5156
-0.3642 -0.2639 0.6032
-0.3845 -0.2606 0.5937
-0.3441 -0.6111 0.8131
-0.2618 -0.6142 0.8327
-0.4138 -0.6042 0.7926
-0.2788 -0.6041 0.8440
-0.5283 -0.6182 0.8662
-0.6289 -0.6340 0.8649
-0.4551 -0.5651 0.7755
-0.3367 -0.5694 0.7513
-0.6266 -0.5792 0.8084
-0.3358 -0.6144 0.7623
-0.6659 -0.5646 0.8102
-0.4246 -0.6232 1.0251
-0.4959 -0.6341 1.1218
-0.1366 -0.6230 0.9473
-0.7302 -0.6030 0.9503
0.0176 -0.6045 0.8346
0.0186 -0.5714 0.7088
-0.0980 -0.5750 0.9007
-0.1856 -0.6166 0.9304
-0.2770 -0.1200 0.3808
-0.6432 -0.6016 0.9953
-0.2367 -0.5813 0.7302
-0.3140 -0.1110 0.3190
-0.3359 -0.1134 0.3404
-0.2618 -0.1105 0.3633
-0.3168 -0.1283 0.3528
-0.3077 0.0252 0.2258
-0.4469 -0.2129 0.4304
-0.6444 -0.6075 0.7786
-0.2897 -0.5873 0.8847
-0.3270 -0.5870 0.7179
-0.5950 -0.6346 0.8754
-0.0596 -0.5571 0.8861
-0.2593 -0.5841 0.7276
-0.2554 -0.0916 0.2814
-0.2762 -0.0426 0.3065
-0.3520 -0.0986 0.2710
-0.6821 -0.5926 0.9758
-0.7128 -0.6030 0.8495
-0.1778 -0.6096 0.8629
-0.3492 -0.6254 0.9153
-0.5225 -0.5999 0.7418
-0.4122 -0.5798 0.7962
-0.2523 -0.3230 0.6666
-0.3121 -0.5865 0.7444
-0.2812 -0.2011 0.4340
-0.3530 -0.1039 0.3167
-0.5168 -0.5901 0.9707
-0.4167 -0.5928 1.1094
-0.3535 -0.5835 0.8675
-0.2564 -0.6081 0.8531
-0.5708 -0.5821 0.8729
-0.3354 -0.3318 0.7264
-0.3408 -0.6230 0.7687
-0.5742 -0.5759 0.7364
-0.6386 -0.5714 0.7447
-0.3556 -0.1818 0.5340
-0.3216 -0.1263 0.4355
-0.2938 -0.5844 1.0675
-0.6809 -0.5985 0.8229
-0.6796 -0.5684 0.7351
-0.5085 -0.5912 0.9219
-0.4308 -0.5794 0.7675
-0.1883 -0.5811 0.7622
-0.1858 -0.5955 0.9105
-0.2889 -0.5713 1.0069
-0.1369 -0.5763 1.0222
-0.2876 -0.5923 1.0085
-0.3270 -0.6115 0.7898
-0.3024 -0.5916 0.8022
-0.2911 -0.2639 0.6335
-0.2409 -0.5826 0.7559
-0.3415 -0.5918 0.6700
-0.3124 -0.6282 0.7506
-0.6776 -0.5643 0.8817
-0.7001 -0.5733 0.8637
-0.5197 -0.6277 0.8815
-0.4625 -0.5986 0.9920
-0.3516 -0.5878 0.8156
-0.3298 -0.5875 1.1422
-0.5082 -0.5996 0.8250
-0.3615 -0.5840 1.0299
-0.4156 -0.6246 0.7564
-0.3296 -0.5879 0.9996
-0.2723 -0.5840 1.0476
-0.3422 -0.2813 0.5307
-0.2779 -0.1262 0.3591
-0.5337 -0.5885 1.0283
-0.4942 -0.5908 1.1445
-0.6083 -0.5916 0.9592
-0.6119 -0.5994 0.8371
-0.3979 -0.5928 1.1380
-0.5836 -0.6007 1.0362
-0.4936 -0.5963 1.0258
-0.4486 -0.5953 1.1588
-0.4021 -0.5911 1.1604
-0.3838 -0.5930 1.1928
-0.3540 -0.5881 0.7404
-0.2766 -0.5764 0.8194
-0.1902 -0.5957 0.8005
-0.2684 -0.5897 0.7823
-0.0220 -0.6014 0.9408
-0.5912 -0.6060 1.0675
-0.3644 -0.0608 0.3646
-0.3094 -0.5762 1.0085
-0.3069 -0.0110 0.3939
-0.5478 -0.5992 0.8745
-0.2726 -0.5860 0.8043
-0.1759 -0.6003 1.0214
-0.2547 -0.0755 0.3174
-0.4162 -0.5934 0.9918
-0.1468 -0.5907 0.8275
-0.2498 0.0102 0.2631
-0.2279 -0.5816 1.0157
-0.2803 -0.5712 0.7139

