-0.1657 -0.2793 -0.0143
-0.0504 -0.0996 -0.0202
-0.0538 -0.1078 0.0055
-0.0352 -0.0748 0.0214
-0.0305 -0.0857 -0.0131
-0.0429 -0.1488 -0.0477
-0.0168 -0.0126 -0.0131
-0.1767 -0.4255 -0.0833
-0.0013 -0.0943 0.0406
-0.0326 -0.0571 0.0231
-0.0214 -0.0384 -0.0006
-0.0292 -0.0653 0.0199
-0.6086 -1.2953 0.1107
-0.0505 -0.4401 0.0450
-0.0627 -0.0516 0.0156
-0.0792 -0.2099 0.1301
-0.3842 -1.3672 0.7525
-0.6576 -1.4593 0.9429
-0.4525 -1.2404 0.5079
-0.2019 -1.4121 0.6108
-0.1696 -1.1176 0.4705
-1.2675 -1.3672 -0.1228
-0.7004 -1.1475 0.2544
-0.6348 -1.1315 -0.1265
-0.1029 -1.2109 0.3697
-0.4790 -1.2878 0.0343
0.0320 -1.1772 0.4905
-0.1484 -1.2627 0.3775
-0.3895 -1.3640 0.8455
-0.0407 -1.2413 0.3580
-0.2363 -1.3132 0.2395
-0.4180 -1.2466 0.1469
-0.5284 -1.1998 0.0735
-0.2260 -1.4139 1.0162
-0.4426 -1.0657 0.2658
-1.0575 -1.3044 0.0830
-0.4683 -1.1951 -0.0043
-0.2702 -1.4224 1.0615
-0.6025 -1.0337 0.0052
-0.5776 -1.3464 0.5113
-0.9734 -1.3124 0.0471
-0.1783 -0.5122 0.0935
-0.2648 -0.9959 0.4713
-0.0607 -0.4544 0.1370
-0.2474 -1.3318 0.9570
-0.1793 -1.2994 0.9839
-0.5337 -1.2727 0.5858
-0.7984 -1.2500 0.0428
-1.0564 -0.5262 1.4254
-0.9282 -0.5174 1.5751
-0.8319 -0.4887 1.2380
-0.6303 -1.4733 0.9265
-0.5174 -0.1922 0.2601
-0.2857 -0.0263 0.0536
-0.2919 -0.0856 0.3384
-1.2463 -0.6802 0.1034
-0.8789 -0.6589 0.6772
-0.9335 -0.6804 0.5877
-0.9774 -0.6753 0.8331
-0.8544 -0.6845 0.7766
-0.8892 -0.6659 0.7814
-1.2000 -0.7016 0.1228
-1.1531 -0.6528 0.6376
-1.1482 -0.6617 0.0610
-1.0105 -0.6901 0.5708
-1.0484 -0.6833 0.8763
-0.8955 -0.6800 0.6022
-1.3632 -0.7315 0.1806
-1.1682 -0.7556 0.2260
-0.9779 -0.6705 0.7577
-0.7061 -1.2935 0.9603
-0.6887 -1.2565 0.9679
-0.7011 -1.3393 0.5712
-0.8104 -0.6331 0.6842
-0.8652 -1.3989 0.7994
-1.3430 -1.4294 -0.1807
-1.6334 -0.6966 0.2606
-1.4817 -0.6749 0.6555
-0.8601 -1.2913 0.1072
-2.0106 -0.6716 1.8167
-0.6619 -1.3294 0.5704
-1.1521 -0.6615 0.9178
-1.0953 -0.6481 0.7503
-0.9789 -0.6645 0.6045
-1.0439 -0.6389 0.5511
-1.1127 -0.6731 0.3917
-1.0472 -0.6673 0.3653
-1.0030 -0.6714 0.3421
-1.1545 -0.6855 0.3395
-1.1954 -0.6826 0.2188
-1.1388 -0.6880 0.1934
-1.1891 -0.6616 0.1671
-1.4008 -0.6942 0.2162
-1.1538 -0.6989 0.0456
-0.7840 -0.5738 0.6354
-2.1660 -0.8290 2.0869
-1.2488 -0.6341 0.6462
-1.3872 -0.6506 0.7276
-0.5831 -0.1916 0.3997
-0.6899 -1.3911 0.6410
-1.1028 -0.6229 0.8196
-0.9445 -0.6831 0.8018
-0.9759 -0.6941 0.4647
-1.1420 -0.6713 0.3511
-1.1346 -0.6491 0.5872
-1.2293 -0.7219 0.5712
-1.1067 -0.6807 0.7480
-1.1646 -0.6761 0.3589
-1.0668 -0.6894 0.4844
-1.2671 -0.7315 0.5183
-1.2742 -0.7437 0.1005
-1.2418 -0.6892 0.1479
-0.9176 -0.7236 0.7441
-1.5791 -0.6798 0.3158
-1.0990 -0.7468 0.4347
-1.0605 -0.6677 0.7942
-1.1296 -0.7204 0.3068
-0.9834 -0.6822 0.5775
-1.1447 -0.6691 0.6276
-1.0940 -0.6930 0.5427
-1.3441 -0.7102 0.3108
-0.9476 -0.6804 0.6384
-1.3399 -0.7041 0.5165
-1.3398 -0.6678 0.3465
-1.1248 -0.6679 0.8372
-0.9233 -0.6862 0.7107
-1.2845 -0.6837 0.7047
-1.1159 -0.6939 0.5825
-1.2880 -0.7030 0.3272
-1.4986 -0.7076 0.2956
-0.9562 -0.6933 0.7915
-1.4508 -0.6837 0.7028
-1.0385 -0.6535 0.4373
-1.2865 -0.6979 0.9997
-1.5770 -0.6798 0.4611
-1.3428 -0.7052 0.2977
-1.1509 -0.7148 0.1552
-0.7896 -0.6324 0.7061
-1.4300 -0.6148 0.1408
-1.0363 -0.6443 0.8522
-1.5044 -0.6763 0.5909
-1.1612 -0.6644 0.2890
-1.2051 -0.7205 0.6320
-1.6228 -0.6668 0.4061
-1.2767 -0.6965 0.2293
-1.3668 -0.6798 0.2460
-1.1823 -0.6706 0.5824
-1.2456 -0.7006 0.5445
-1.1564 -0.6792 0.4278
-1.1470 -0.7054 0.0940
-0.9853 -0.7070 0.2973
-1.3175 -0.6832 0.4484
-1.1146 -0.7043 0.1539
-1.2540 -0.7112 0.1484
-1.0730 -0.6778 0.1930
-1.1254 -0.7256 0.1636
-1.0223 -0.7416 0.7372
-1.3112 -0.6852 0.2192
-1.3338 -0.7446 0.1996
-1.2904 -0.7278 0.3987
-0.9011 -0.7498 0.8536
-1.5064 -0.6930 0.2663
-1.4885 -0.6836 0.6524
-1.2797 -0.6840 1.4326
-0.7948 -1.3350 1.0498
-0.6827 -1.3727 0.7693
-0.9616 -0.7652 0.6975
-1.1700 -0.6900 0.7498
-1.0306 -1.4274 0.4185
-1.3875 -0.6910 0.5283
-1.2608 -1.3686 -0.0821
-1.0875 -0.6764 0.8506
-1.4351 -0.7353 0.4552
-1.3346 -0.6902 1.5801
-1.4101 -0.6974 0.8235
-0.9073 -0.6923 0.5069
-1.4311 -0.6836 0.7778
-1.3364 -0.7046 0.5392
-1.2239 -0.6847 0.4575
-1.2452 -0.7210 0.4400
-1.6547 -0.6897 0.3187
-1.6306 -0.6810 0.3364
-1.0168 -0.6952 0.2467
-0.5496 -1.4163 0.5428
-1.4938 -0.6746 0.7340
-0.9979 -0.7551 0.7584
-1.0705 -0.6879 0.7701
-0.7198 -1.4894 0.7117
-1.3579 -0.6464 0.2309
-2.5926 -0.4840 1.4486
-2.3156 -0.4841 2.0693
-2.7199 -0.8271 0.6384
-1.9443 -0.7688 1.8398
-1.8871 -0.7484 2.1979
-0.7610 -0.6756 0.7176
-1.3988 -0.7286 0.3303
-0.8661 -0.6844 0.8020
-1.2454 -0.6532 0.6066
-1.0510 -0.6969 0.8366
-3.2411 -0.7729 0.3181
-2.8863 -0.4895 0.9165
-2.6461 -0.4641 2.4055
-3.0642 -0.6791 1.6502
-2.9060 -0.4377 0.8158
-3.1712 -0.4355 0.3355
-2.6716 -0.4397 1.6530
-1.1249 -0.6715 0.3063
-2.9313 -0.4304 1.6096
-3.5229 -0.9490 0.2142
-3.4196 -0.5374 0.3256
-2.7496 -0.4571 1.5783
-3.0158 -0.4419 0.8757
-2.1127 -0.7390 2.2423
-2.9254 -0.7294 0.4544
-0.8045 -1.2818 0.9848
-1.7607 -0.6425 0.6670
-0.6811 -1.4838 0.2383
-0.6207 -1.3473 0.6244
-0.8351 -1.3874 0.6376
-1.0561 -0.6882 0.1663
-1.0923 -0.6504 0.1060
-2.6744 -0.4278 2.6753
-3.2885 -0.4309 1.4671
-3.2625 -0.4349 1.2699
-3.5822 -0.8078 1.2677
-3.2810 -0.4272 1.1927
-0.6370 -1.2950 0.5787
-0.9735 -0.6752 0.7322
-3.4613 -0.9428 1.2612
-3.1414 -1.1956 2.1693
-2.6503 -0.4494 1.7554
-1.0445 -0.6753 0.6757
-1.1402 -0.6839 0.6939
-1.0440 -0.6797 0.5732
-1.2140 -0.6899 0.4896
-1.0578 -0.7068 0.4114
-3.3568 -0.4375 1.4461
-3.3660 -0.3927 1.3011
-2.6559 -0.4281 2.7833
-2.6939 -0.4877 2.7844
-2.6786 -0.3558 1.4797
-1.7555 -0.6214 1.7673
-0.9487 -0.6953 0.7509
-0.8550 -0.6911 0.7740
-1.1396 -0.7004 0.0881
-0.5535 -1.4419 0.5491
-1.2075 -0.7170 0.1233

