-0.5206 -1.3837 0.6005
-0.8750 -1.6797 2.0050
-0.3446 -1.3981 0.9630
-0.8158 -1.3549 0.5352
-0.9013 -1.3625 0.5952
-1.6661 -1.6756 0.9701
-0.9768 -1.5160 1.5764
-1.3986 -1.6701 1.4621
-1.3983 -1.7430 1.0815
-1.0220 -1.4995 1.8021
-0.1449 -1.6754 0.5715
-0.1435 -1.3709 0.9967
-0.3170 -2.0771 1.8963
-0.6725 -1.4079 1.2898
-0.1833 -1.5030 0.7666
-0.6297 -0.5810 0.4782
-0.0048 -1.4495 0.9386
-0.2567 -1.9355 1.2084
-1.0732 -1.3793 0.9319
-0.3864 -1.3940 0.8626
-0.4056 -1.5887 0.6337
-1.2445 -1.7025 1.4906
-0.9674 -1.3744 0.9478
-1.2161 -1.7818 1.0242
-0.6967 -1.9471 1.6646
-0.8380 -1.5206 0.3451
-0.0001 -1.6900 0.7702
-0.4598 -1.4046 1.0253
-0.5884 -1.2880 0.6791
-0.9626 -1.3114 0.6446
-0.1761 -1.3796 1.0761
-0.4541 -1.2646 0.6444
-0.6058 -1.3947 0.5331
-0.5246 -1.9296 0.4262
-0.2940 -1.3501 1.2907
-0.1299 -1.4164 1.0969
-0.6392 -1.3879 0.6902
-0.3577 -1.3795 1.3815
-0.2850 -1.3327 1.1239
-0.1349 -1.4200 1.0299
-0.2173 -1.4107 1.0701
-0.6338 -1.3483 0.7118
-0.7119 -1.4727 1.7685
-0.3154 -1.3580 1.0689
-0.5863 -1.3230 1.4061
-0.3063 -1.3402 0.9928
-1.0267 -1.4322 0.2939
-0.7037 -1.4040 0.6343
-0.2375 -1.3912 0.7139
-0.3939 -1.9960 1.7555
-0.4446 -1.3528 1.0852
-0.1504 -1.4745 0.7406
-0.0930 -1.4989 0.7174
-0.2357 -1.3485 1.2023
-1.0404 -1.7483 1.0102
-0.5109 -1.9675 1.5555
-0.1309 -1.7364 0.8314
-0.4451 -1.4663 1.0206
-0.3618 -1.3649 0.7072
-0.0764 -1.7052 0.6384
-0.6244 -1.3499 1.0653
-1.4025 -1.4877 1.2526
-0.6797 -1.4278 1.2032
-1.1694 -1.5428 1.7469
-0.6926 -1.9111 1.5290
-0.7381 -1.4825 1.2710
-0.3942 -1.3994 0.7583
-0.2169 -1.6483 0.7262
-1.6393 -1.4981 0.8342
-0.9770 -1.4517 0.2339
-1.0287 -1.6823 1.7956
-1.4025 -1.8365 0.5488
-1.1436 -1.4272 1.5124
-0.4597 -1.3355 0.6170
-1.2524 -1.5214 1.5998
-0.3455 -0.1533 0.3897
-0.4514 -1.3496 0.5563
-1.1488 -1.6780 1.4947
-0.8888 -1.5620 0.1672
-0.7905 -1.4140 0.9915
-0.7351 -1.5216 0.9386
-1.2012 -1.7024 1.4565
-0.5711 -1.7848 0.6707
-0.8963 -0.6235 0.4794
-0.9345 -1.7657 1.0608
-0.7998 -1.4803 0.1130
-1.0151 -1.3556 0.9608
-0.6352 -1.7020 0.6791
-0.7033 -1.3721 0.6468
-0.9966 -1.9080 0.2098
-1.2651 -1.3245 0.5759
-0.5733 -1.4430 0.5634
-1.3077 -1.7037 1.4305
-0.8065 -1.4143 0.6867
-0.6963 -1.3876 0.6026
-0.7618 -1.3707 0.1920
-0.9802 -1.4002 0.4184
-0.7175 -1.4353 0.2821
-1.4576 -1.5171 0.9829
-0.5386 -1.6290 0.2686
-1.4612 -1.6876 1.2988
-0.9450 -1.3608 0.4089
-0.6044 -1.3422 0.2942
-0.7617 -1.8772 0.2262
-0.8212 -1.6645 0.5644
-0.7990 -1.3160 0.3399
-1.1941 -1.7525 0.8900
-1.1303 -1.7266 0.8251
-0.6778 -1.8896 0.3122
-1.5026 -1.4131 1.1257
-0.7308 -1.3229 0.2922
-1.0743 -1.4109 0.6899
-1.4174 -1.3901 1.1496
-0.8341 -1.3249 0.4097
-1.5481 -1.6656 1.1470
-1.5133 -1.3962 0.9947
-0.5816 -1.9264 0.2462
-1.0218 -1.4560 1.4571
-0.0786 -1.6828 0.8518
-0.7294 -1.3100 1.0609
-0.8026 -1.1667 0.4645
-0.5705 -1.3200 0.3908
-0.1239 -1.4307 0.9566
0.0653 -1.8385 0.9786
-0.6136 -1.3588 1.1294
-0.8165 -1.9427 1.6540
-0.1909 -1.3669 1.1349
-0.2631 -1.4110 1.1955
-0.5999 -1.3600 0.2952
-0.5792 -1.5094 0.2909
-0.7702 -1.7065 1.9745
-1.0540 -1.4826 0.2014
-1.5325 -1.8564 0.5233
-1.4553 -1.4348 0.5489
-1.8737 -1.6301 0.9276
-0.3384 -1.7082 1.0406
-0.8499 -1.8390 1.1144
-0.5556 -1.3930 0.6988
-0.5009 -1.3275 0.5834
-1.1623 -1.5322 1.3679
-0.8857 -1.3946 0.9139
-0.8357 -1.3301 0.0832
-0.5514 -1.9026 1.3682
-0.7473 -1.3198 0.3383
-0.6189 -1.5241 0.2420
-0.6000 -1.4224 1.3475
-0.6674 -1.3914 0.2855
-0.2910 -1.4061 0.8125
-0.8942 -1.4566 0.1581
-0.2215 -1.4308 1.1360
-0.7304 -1.3507 0.2346
-1.7088 -1.3595 0.9071
-1.0800 -1.1025 0.4347
-0.8210 -1.4135 0.7097
-1.3756 -1.4148 0.5222
-1.7077 -1.4401 0.9549
-0.2053 -1.8084 1.0303
-0.2109 -1.8161 0.9849
-1.1779 -1.6516 1.6875
-0.6054 -1.4607 1.1385
-0.2531 -1.5629 0.7048
-0.7778 -1.3831 1.0850
-0.3689 -1.3775 0.8183
-0.4316 -1.3933 0.8604
-0.4739 -1.4056 0.6232
-0.4366 -1.4647 0.4972
-0.4265 -1.7234 0.5754
-0.1761 -1.4818 0.6991
-0.6021 -1.4519 0.4782
-0.6226 -1.4669 0.4212
-1.0372 -1.3976 0.7352
-1.0877 -1.8235 0.7682
-1.1315 -1.3949 0.6179
-1.6179 -1.4418 0.8928
-0.6638 -1.9485 2.1078
-0.7942 -1.4528 0.5411
-0.8778 -1.5027 0.3022
-0.7485 -1.5450 0.1998
-0.8119 -0.5690 0.4206
-0.9812 -1.5820 0.1318
-0.9656 -1.9247 0.1415
-0.5908 -1.5831 1.5360
-0.1092 -1.4737 0.6938
-0.8434 -1.6735 1.3303
-0.3967 -1.5646 0.6287
-0.3064 -0.2505 0.5181
-0.8794 -1.4398 0.6200
-0.1938 -1.4623 0.8138
-1.6449 -1.4411 0.7288
-0.4875 -1.6820 1.9682
-0.1681 -1.5562 1.1492
-0.6798 -1.7695 2.0599
-0.4933 -1.8929 1.6230
-0.7497 -1.6963 1.6392
-1.5643 -1.2559 0.8131
-0.1090 -1.7041 0.6996
-1.3195 -1.3471 0.7895
-0.7490 -1.4845 0.4113
-0.8292 -1.3848 1.1493
-0.8267 -1.8203 0.6020
-0.8719 -0.7734 0.6780
-0.7950 -1.6693 1.7815
-0.4173 -1.4849 0.8013
-0.8146 -1.5067 0.3035
-1.3329 -1.3432 0.9538
-0.8835 -1.4055 0.7860
-0.4843 -0.3762 0.4726
-0.2138 -1.8301 0.8079
-1.4275 -1.4337 0.6975
-0.1771 -1.9240 1.3960
-0.6683 -1.8266 1.5922
-1.0121 -1.4628 1.6007
-0.9671 -1.4514 1.6124
-0.4426 -1.6638 1.1676
-1.0047 -1.5793 0.2265
-0.6795 -1.8886 0.0437
-0.8230 -1.9217 0.3578
-1.1441 -1.6727 0.8134
-1.4213 -1.4247 0.8880
-1.2003 -1.8078 1.4140
-1.2444 -1.7902 0.2201
-0.4993 -2.1786 0.1660
-1.1315 -2.2565 0.0869
-0.5135 -2.0396 0.1622
-1.0083 -2.0638 1.1672
-0.4545 -1.9880 0.7581
-1.0237 -2.0254 0.0929
-1.2897 -1.7330 1.3058
-1.5640 -1.9356 1.0434
-1.4605 -1.6439 0.9987
-1.3171 -1.8729 1.8945
-0.9101 -1.0080 1.3335
-0.2992 -0.1873 0.2763
-0.7048 -1.7037 2.0303
-0.6167 -1.6801 2.0272
-0.2779 -1.3806 1.0504
-0.8331 -1.4747 0.1863
-0.6380 -1.5490 0.3379
-0.5226 -0.4196 0.5515
-0.3102 -2.1630 1.3579
-0.2037 -2.1171 1.0332
-0.2659 -2.2550 1.2067
-0.2698 -2.4226 1.0902
-0.9340 -1.9694 1.7862
-0.6254 -1.5513 2.0993
-0.8614 -1.9684 0.0599
-0.2803 -0.0626 0.3871
-0.2383 -0.0831 0.3224
-0.2686 -2.2395 1.9602
-0.3252 -2.0408 2.0427
-2.0106 -2.4534 0.6016
-1.9932 -1.9790 1.3298
-1.0837 -2.1307 2.0149
-0.8937 -2.4591 1.5591
-1.9049 -2.3261 0.5121
-1.8617 -2.3928 0.5574
-2.2155 -1.9773 1.1493
-0.3409 -0.0274 0.3190
-0.6030 -1.5652 0.5687
-0.5484 -1.5392 0.3459
-0.4798 -1.7895 0.8621
-0.6433 -1.8088 0.5868
-0.0854 -1.7932 1.0999
-1.0430 -1.8802 0.3258
0.0301 -1.9616 1.4924
-0.0725 -1.8319 1.1484
-1.9130 -1.6238 0.8871
-0.8997 -1.5339 1.8586
-0.2508 -0.0714 0.2831
-0.2667 -0.0646 0.2887
-0.2919 -0.0469 0.2978
-0.2713 -0.0520 0.3147
-0.3202 -0.0191 0.3174
-0.2968 -0.0600 0.2873
-0.2967 -0.0657 0.3188
-0.3357 -0.0123 0.3089
-0.4553 -0.2483 0.3308
-0.4670 -0.1816 0.3571
-0.6339 -0.6049 0.8574
-0.4610 -0.1543 0.3860
-0.3137 -0.1127 0.3685
-0.3604 -0.0513 0.3177
-0.7739 -0.6072 0.6748
-0.5485 -0.6141 0.2043
-0.5364 -0.6287 0.3634
-0.3127 -0.6756 0.4251
-0.6678 -0.6060 0.6363
-0.5822 -0.6351 0.3852
-0.5081 -0.5852 0.3683
-0.7564 -0.6251 0.3222
-0.5681 -0.6353 0.4932
-0.5032 -0.6464 0.6131
-0.4152 -0.6353 0.2534
-0.5470 -0.7021 0.5681
-0.6805 -0.6369 0.5119
-0.4330 -0.6062 0.2840
-0.5622 -0.6504 0.2161
-0.7864 -0.6118 0.6126
-0.4497 -0.6130 0.2762
-0.7277 -0.5989 0.5802
-0.4522 -0.6303 0.3074
-0.4004 -0.6238 0.3182
-0.6334 -0.5891 0.4415
-0.4079 -0.6409 0.2878
-0.4776 -0.6095 0.3442
-0.8797 -0.6407 0.4852
-0.4971 -0.6757 0.3136
-0.9773 -0.6415 0.4767
-0.5610 -0.7050 0.1943
-0.4565 -0.6950 0.1640
-0.4785 -0.6066 0.3018
-0.7183 -0.5692 0.5118
-0.3983 -0.6555 0.2344
-0.4805 -0.6172 0.5030
-0.3681 -0.7257 0.4226
-0.4083 -0.6643 0.4027
-0.4994 -0.6145 0.3356
-0.7033 -0.6478 0.2976
-0.5281 -0.6017 0.2028
-0.5148 -0.6071 0.5161
-0.3768 -0.7048 0.4048
-0.3897 -0.6314 0.2692
-0.4466 -0.6044 0.2935
-1.0934 -0.7209 0.4149
-1.1050 -0.7606 0.3930
-0.8634 -0.6386 0.2964
-0.8413 -0.6660 0.2680
-0.8648 -0.6641 0.2670
-0.6821 -0.6104 0.1667
-0.7210 -0.7152 0.1271
-0.6531 -0.6338 0.1368
-0.7270 -0.6631 0.1505
-0.5124 -0.5212 0.5113
-0.7692 -0.6509 0.5651
-0.4219 -0.6095 0.2652
-0.7061 -0.7004 0.3734
-0.5217 -0.7142 0.2263
-0.5334 -0.6066 0.2280
-0.5098 -0.6454 0.3574
-0.7156 -0.5933 0.5007
-0.6403 -0.5621 0.4521
-0.5584 -0.6304 0.3915
-0.4366 -0.6496 0.2988
-0.4608 -0.5967 0.3079
-0.4604 -0.6224 0.2908
-0.4770 -0.6172 0.2438
-0.8969 -0.6185 0.4533
-0.7106 -0.6137 0.3346
-0.9837 -0.6639 0.4496
-0.9669 -0.6777 0.3826
-0.5939 -0.6293 0.1890
-0.8093 -0.7051 0.2356
-0.7557 -0.6786 0.1634
-0.6157 -0.6026 0.1339
-0.5720 -0.6793 0.0152
-0.4185 -0.6098 0.3958
-0.4669 -0.6257 0.4167
-0.6274 -0.6059 0.3221
-0.5262 -0.6193 0.1696
-0.5714 -0.6221 0.1113
-0.6761 -0.6963 0.0931
-0.5656 -0.6596 0.0310
-0.4794 -0.6546 0.2636
-1.1161 -0.7082 0.4406
-0.5793 -0.6710 0.5501
-0.5741 -0.6146 0.4347
-0.6318 -0.6386 0.1628
-0.4639 -0.5619 0.3005
-0.4693 -0.5943 0.3430
-0.5027 -0.6444 0.3175
-0.4983 -0.5417 0.1697
-0.4164 -0.6336 0.3187
-0.3753 -0.6263 0.2668
-0.7282 -0.5457 0.5301
-0.8215 -0.5455 0.4057
-0.3539 -0.5706 0.4196
-0.5799 -0.6179 0.3819
-0.4381 -0.3590 0.1898
-0.3530 -0.4902 0.3991
-0.3960 -0.5925 0.4186
-0.6022 -0.5573 0.4883
-0.5172 -0.5743 0.2025
-0.3697 -0.5996 0.4167
-0.5280 -0.6267 0.2089
-0.6609 -0.5540 0.6243
-0.8071 -0.5617 0.5584
-0.3861 -0.5855 0.3199
-0.2547 -0.6570 0.5825
-0.3287 -0.6535 0.5753
-0.2343 -0.6179 0.4307
-0.5510 -0.6255 0.5594
-0.3870 -0.5287 0.3942
-0.4137 -0.6131 0.4004
-0.5756 -0.5378 0.4338
-0.6920 -0.6228 0.5118
-0.4191 -0.4898 0.3089
-0.4594 -0.6194 0.3039
-0.5408 -0.4855 0.2057
-0.3813 -0.5867 0.7082
-0.2141 -0.5349 0.5304
-0.3058 -0.5690 0.5302
-0.5839 -0.5819 0.4208
-0.6931 -0.6487 0.8613
-0.1965 -0.5299 0.4543
-0.2397 -0.5598 0.4952
-0.2191 -0.5443 0.4743
-0.2518 -0.5592 0.5048
-0.3027 -0.5561 0.5118
-0.2557 -0.5519 0.4426
-0.2961 -0.5589 0.4540
-0.3583 -0.5809 0.4588
-0.3707 -0.5575 0.4402
-0.3577 -0.5714 0.3805
-0.3517 -0.5720 0.2447
-0.4081 -0.5243 0.6075
-0.3029 -0.5917 0.4257
-0.2490 -0.5333 0.6118
-0.3138 -0.5453 0.5976
-0.2885 -0.5506 0.5577
-0.3298 -0.5765 0.5911
-0.3958 -0.5524 0.5906
-0.3176 -0.5723 0.5005
-0.2587 -0.5943 0.3993
-0.4962 -0.5861 0.5162
-0.5741 -0.5462 0.5272
-0.4863 -0.5646 0.3865
-0.4376 -0.5959 0.2719
-0.4602 -0.5772 0.2398
-0.3433 -0.5883 0.3778
-0.4472 -0.5487 0.6809
-0.5260 -0.5918 0.3606
-0.4065 -0.6018 0.2050
-0.5055 -0.5735 0.2466
-0.5019 -0.5244 0.2003
-0.3679 -0.5195 0.4217
-0.7827 -0.7178 0.3185
-0.4445 -0.5922 0.6387
-0.3965 -0.5689 0.4768
-0.3276 -0.5853 0.4751

