-0.2032 -0.3463 0.4414
-0.3210 -0.4909 0.6599
-0.0168 -0.5210 0.6529
0.0736 -0.4609 0.7122
-0.0390 -0.5319 0.4720
-0.1238 -0.4796 0.3023
-0.4059 -0.4873 0.6527
-0.0006 -0.5891 0.8367
-0.0902 -0.3954 0.3361
-0.1355 -0.3924 0.2872
0.0878 -0.4577 0.4822
0.0484 -0.4697 0.4240
0.0051 -0.4156 0.4072
0.0004 -0.5617 0.4545
-0.3039 -0.5861 0.7903
-0.1764 -0.5228 0.2318
-0.4566 -0.5109 0.6938
0.0519 -0.4120 0.4230
2.3112 -11.7755 7.1869
0.0486 -0.5184 0.5036
0.0484 -0.4641 0.2733
0.0164 -0.5607 0.7278
0.0355 -0.6758 0.5435
-0.0560 -0.5148 0.6713
-0.0722 -0.3915 0.3667
-0.0758 -0.4096 0.4309
-0.0632 -0.3753 0.2744
-0.1269 -0.4145 0.4135
-0.1005 -0.3891 0.3444
-0.1326 -0.2992 0.3380
-0.1887 -0.4715 0.3743
-0.3067 -0.4882 0.5987
-0.3747 -0.5470 0.6984
-0.3096 -0.4764 0.4981
-0.4343 -0.4869 0.6325
-0.2633 -0.4431 0.2847
0.1470 -0.5881 0.8813
0.0967 -0.5506 0.6030
-0.0166 -0.4616 0.3137
-0.0518 -0.4732 0.4828
-0.1079 -0.4399 0.4700
-0.0937 -0.3829 0.2955
-0.2190 -0.4683 0.4841
-0.2075 -0.4786 0.4347
-0.4165 -0.4759 0.5678
-0.2457 -0.6007 0.2745
0.0820 -0.5196 0.6087
-0.1176 -0.4619 0.2690
-0.3017 -0.5086 0.3385
-0.2691 -0.4535 0.1723
-0.0291 -0.5132 0.2401
-0.1650 -0.4609 0.2236
-0.1936 -0.4772 0.3444
-0.1426 -0.4633 0.2887
0.0834 -0.5694 0.7963
0.0313 -0.5476 0.6516
-0.0233 -0.6734 0.7171
-0.1536 -0.5123 0.7042
-0.1418 -0.4545 0.3981
-0.2270 -0.5508 0.7102
-0.2690 -0.5286 0.6523
-0.2845 -0.4757 0.3827
-0.3617 -0.4621 0.6220
-0.3507 -0.5534 0.3955
-0.2941 -0.4355 0.2987
-0.2662 -0.4340 0.1971
0.1353 -0.5090 0.4854
0.0229 -0.3695 0.2161
0.0246 -0.4800 0.3946
-0.0712 -0.5278 0.5935
-1.8362 -17.5541 7.6344
-0.2173 -0.5672 0.6592
-0.2556 -0.5054 0.2809
-0.3318 -0.6394 0.2659
0.1154 -0.3891 0.2505
0.1792 -0.5497 0.5453
-0.0271 -0.3691 0.4865
0.0648 -0.6778 0.5833
-0.0715 -0.5470 0.8318
-0.0679 -0.4809 0.7220
-0.1284 -0.4202 0.6367
-0.0554 -0.5184 0.3593
-0.1143 -0.3191 0.4880
-0.1552 -0.4101 0.4338
-0.1437 -0.4431 0.3564
-0.3256 -0.5879 0.7308
-0.3527 -0.5967 0.5157
3.2617 -12.1253 5.4082
0.0019 -0.2966 0.4952
-0.0423 -0.4618 0.5861
-0.0254 -0.2010 0.2574
-0.1549 -0.5608 0.5648
-0.6419 -2.6973 2.3171
-0.1295 -0.4263 0.2994
-0.2024 -0.3848 0.4507
-0.0351 -0.2234 0.2231
-0.0640 -0.0967 0.2875
-0.0605 -0.6751 0.7480
-0.0517 -0.0145 0.1963
-0.0781 -0.0230 0.2578
-0.1036 -0.0856 0.2397
-0.1045 -0.1496 0.3327
-0.0493 0.0097 0.1800
-0.0560 -0.1581 0.2620
-0.0522 -0.3657 0.1998
-0.2875 -0.6428 0.2344
-0.0640 0.0452 0.1954
-0.1077 -0.0959 0.1800
0.0145 -0.2448 0.2979
-0.0719 -0.5179 0.6216
-0.0922 0.0160 0.2269
-0.3123 -0.3708 0.4437
-0.2480 -1.9266 2.0367
-0.2564 -0.9385 0.3053
-0.2365 -0.3643 0.1682
-0.0258 -0.4334 0.5429
-0.7003 -1.2444 1.2007
-0.5068 -4.1581 0.7850
-0.0410 0.0018 0.2073
-0.1328 -0.9603 0.2828
-0.7080 -2.3628 -0.3334
-0.4630 -2.5082 0.7250
0.9158 -10.9065 9.8041
0.0447 -0.6903 0.8044
2.7129 -7.9885 7.0505
2.7209 -12.7398 11.3289
0.0487 -1.5169 0.0870
0.5541 -14.7394 12.2317
3.0423 -7.6098 4.8017
3.1405 -12.6346 7.1716
3.3617 -12.6487 5.7309
-0.1025 -0.6836 0.7816
3.1063 -15.2075 7.5926
-1.4034 -14.0279 12.9069
3.3527 -15.0698 10.3714
-0.2245 -2.4269 2.5653
-0.4092 -15.3750 8.6605
-0.7458 -17.8947 6.3257
-2.5246 -16.0311 10.5811
-4.6165 -11.3723 8.2908
-0.0701 -0.6759 0.5648
-1.6951 -13.6070 7.3668
-8.2022 -14.8724 12.0440
4.8997 -15.7420 2.9091
4.7147 -15.1499 1.8964
-1.9499 -11.6050 9.0115
0.8449 -14.6263 10.4995
4.4898 -12.0276 11.7966
1.9004 -12.6341 11.8398
-9.2631 -16.3250 10.4680
0.5467 -17.7204 4.2648
-5.2355 -12.7910 5.7428
-2.3652 -15.9533 1.7775
-4.4246 -17.3513 7.2197
-4.3516 -17.5915 1.3624
3.4118 -20.1994 1.4678
-1.7726 -14.1723 10.3326
-0.0871 -0.6472 0.4620
-3.2783 -11.5276 8.7341
0.0097 -0.3128 0.2907
0.0116 -0.0470 0.2706
3.6205 -11.4056 5.8670
-3.8223 -13.4869 4.8613
-0.2766 -0.6502 0.7145
-5.9028 -12.8660 4.7428
-0.6516 -11.8023 8.1427
-3.8671 -13.9536 7.3784
-5.3784 -17.3534 2.0947
-1.2688 -15.2551 0.3468
-0.9754 -18.7363 2.3443
-1.4477 -15.3362 1.0359
4.9280 -13.9170 3.5768
-6.1436 -14.8432 1.5058
0.7013 -12.8999 13.4032
-0.0383 -12.2872 9.3093
-0.0543 -0.6587 0.4296
-3.1868 -16.4678 9.6290
0.0737 -0.6842 0.5172
-7.5929 -15.8184 7.5800
7.6086 -19.8446 1.8703
0.9448 -19.1399 2.7179
2.3808 -12.0378 12.0736
2.4645 -14.3574 11.8202
0.0035 -0.6789 0.5097
-0.0974 -0.6759 0.5365
-0.0838 -0.3032 0.3801
0.0209 -0.0712 0.2718
4.5055 -17.6816 3.2554
-2.4000 -16.9032 1.0171
-5.4845 -15.5950 0.9214
2.8125 -11.5968 12.6011
2.4525 -16.5863 9.0537
2.7332 -16.7440 7.3253
-3.1614 -9.4306 -2.0701
-5.1747 -9.4360 6.4735
6.7062 -18.3133 3.7767
-2.8351 -17.7985 2.8566
-2.6343 -18.9681 6.3746
6.1253 -19.4728 4.9668
-3.4806 -19.0679 0.6945
0.0239 -0.0401 0.2886
-0.0871 -0.6667 0.3913
-6.6205 -18.9323 7.6214
4.0367 -12.6872 11.6602
2.3834 -15.8442 2.5079
-7.7567 -17.1508 14.4324
6.9061 -16.4495 9.0647
6.7163 -18.1191 8.8049
-4.1567 -16.8805 13.9778
-0.2388 -0.6488 0.2758
-4.3035 -19.1096 4.8125
7.3162 -22.5934 3.2268
-4.6316 -19.7929 0.5885
-8.1550 -18.8750 3.9764
5.9236 -16.9682 12.1508
0.0221 -0.6179 0.2512
-4.1648 -18.8766 13.5536
-0.2396 -0.6715 0.6283
4.8871 -20.6441 5.0490
0.0167 -0.0480 0.2711
0.0164 -0.0825 0.2936
-0.0229 -0.2180 0.2867
0.0209 -0.0450 0.2752
0.0120 -0.0259 0.2748
-0.0560 -0.2615 0.4313
-0.0680 -0.6665 0.2260
-0.2592 -0.7120 0.7314
0.0423 -0.1722 0.4126
-0.0207 -0.0773 0.2796
-0.0540 -0.1274 0.2911
-0.0795 -0.2093 0.4391
-0.0471 -0.1171 0.3584
-0.0160 -0.0960 0.2679
-0.2124 -0.6704 0.3133
0.1392 -0.7151 0.6126
-0.1175 -0.6304 0.4254
-0.1691 -0.6748 0.7789
-0.0769 -0.2607 0.4468
0.0902 -0.7296 0.8030
-0.2979 -0.6818 0.8079
-0.2478 -0.6854 0.2261
-0.0027 -0.6699 0.5728
0.0141 -0.0232 0.2766
-0.1673 -0.6483 0.2778
-0.0595 -0.6552 0.4956
-0.1132 -0.6715 0.3668
-0.1001 -0.6503 0.2628
0.1047 -0.7925 0.6800
0.0399 -0.6698 0.4781
-0.0299 -0.6789 0.7883
-0.1071 -0.6565 0.3267
-0.0287 -0.6844 0.4801
-0.0398 -0.6634 0.2442
-0.1477 -0.6370 0.4842
0.0499 -0.6232 0.3386
0.1094 -0.6707 0.4833
0.0166 -0.6584 0.3691
-0.2373 -0.6981 0.8246
-0.2611 -0.6596 0.8111
-0.2509 -0.6738 0.3541
0.0277 -0.6672 0.2724
-0.1709 -0.6487 0.3132
-0.4431 -0.7527 0.6557
0.1411 -0.5999 0.3100
0.0740 -0.6884 0.8490
-0.0038 -0.6991 0.8438
-0.0773 -0.6647 0.3379
-0.0392 -0.3449 0.3042
-0.1822 -0.6849 0.4735
-0.2632 -0.6863 0.7785
-0.3699 -0.6896 0.8126
-0.3910 -0.6785 0.7572
-0.3877 -0.6988 0.6326
-0.4437 -0.7020 0.8137
-0.4455 -0.7154 0.7534
-0.1345 -0.6532 0.3184
0.0252 -0.6416 0.4146
-0.0058 -0.6659 0.4576
-0.0012 -0.6615 0.3888
-0.0218 -0.6397 0.2846
-0.0452 -0.6448 0.3281
-0.1147 -0.6452 0.5313
-0.0948 -0.6638 0.2743
-0.1258 -0.6545 0.3914
-0.0465 -0.1282 0.3501
-0.2569 -0.6691 0.6502
-0.2479 -0.6417 0.4706
-0.2055 -0.6299 0.3375
-0.1774 -0.6498 0.2131
-0.1993 -0.6338 0.2712
-0.2375 -0.6364 0.3011
-0.0625 -0.1985 0.2555
-0.3601 -0.6792 0.6089
-0.2810 -0.6310 0.3196
-0.2815 -0.6177 0.3099
-0.3090 -0.6318 0.3578
-0.3398 -0.6399 0.4310
-0.0845 -0.2050 0.2532
-0.0873 -0.1978 0.2612
-0.3727 -0.6270 0.4492
-0.3705 -0.6198 0.3821
-0.1389 -0.6437 0.2971
-0.1232 -0.4813 0.5274
-0.1461 -0.5945 0.5287
-0.2432 -0.6141 0.4929
-0.2457 -0.6616 0.4553
-0.2800 -0.6460 0.4756
-0.2531 -0.6452 0.4026
-0.3500 -0.6843 0.6668
-0.3150 -0.6601 0.4432
-0.2699 -0.6343 0.3022
-0.3574 -0.6633 0.4838
-0.3102 -0.6198 0.3856
-0.2668 -0.6649 0.1902
-0.3127 -0.6483 0.3275
-0.3891 -0.6586 0.3954
0.0132 -0.0243 0.2756
0.0115 -0.0284 0.2760
0.0107 -0.6579 0.5483
-0.1238 -0.6736 0.7885
-0.0318 -0.1004 0.3335
-0.3877 -0.6459 0.7928
-0.0345 -0.6724 0.5401
-0.1655 -0.6579 0.6895
-0.1742 -0.6434 0.2845
-0.3495 -0.6983 0.6106
-0.3966 -0.6366 0.5775
0.0649 -0.5763 0.2428
-0.0896 -0.6646 0.5797
-0.1783 -0.6820 0.8344
-0.1632 -0.6546 0.6863
-0.0512 -0.6228 0.2258
-0.1961 -0.6657 0.6531
-0.2709 -0.6601 0.6169
-0.2893 -0.6592 0.6303
-0.3119 -0.6555 0.5562
-0.3327 -0.6512 0.6041
-0.3444 -0.6393 0.6114
-0.2976 -0.6411 0.4823
-0.3445 -0.6561 0.5475
-0.3213 -0.6485 0.4091
-0.2386 -0.6271 0.2083
-0.3714 -0.6511 0.4843
-0.3336 -0.6404 0.2582
-0.3444 -0.6273 0.2730
-0.0750 -0.6671 0.8081
-0.0227 -0.6569 0.3938
-0.1463 -0.6860 0.8723
-0.0465 -0.6863 0.3628
-0.1065 -0.6616 0.5947
-0.1369 -0.7739 0.6170
-0.1986 -0.6146 0.6297
-0.0939 -0.6229 0.2220
-0.2718 -0.6569 0.6508
-0.3095 -0.6562 0.6750
-0.3964 -0.7027 0.7100
-0.3214 -0.6521 0.4993
-0.3545 -0.6774 0.2938
-0.3236 -0.7163 0.2105
-0.3691 -0.6366 0.3257
-0.4043 -0.7361 0.2037
-0.2049 -0.6596 0.8074
-0.2015 -0.6499 0.7311
-0.2122 -0.6723 0.5386
-0.3052 -0.6062 0.2761
-0.3441 -0.6137 0.3059
-0.1398 -0.2035 0.2518
-0.3652 -0.6251 0.1910
-0.3358 -0.5816 0.1259
-0.1308 -0.6535 0.2705
-0.0319 -0.6332 0.3452
-0.1205 -0.6637 0.6611
-0.1984 -0.6533 0.5839
-0.1552 -0.7344 0.3965
-0.3460 -0.6170 0.7786
-0.2257 -0.7049 0.3815
-0.2020 -0.6750 0.2065
-0.4716 -0.6867 0.7879
-0.3903 -0.6319 0.5072
-0.2917 -0.6090 0.3239
-0.3789 -0.6425 0.4229
-0.2899 -0.6194 0.2623
-0.3872 -0.6349 0.2528
-0.3800 -0.6253 0.2339
0.0416 -0.7518 0.9212
-0.3950 -0.6138 0.7639
-0.1713 -0.7360 0.6154
-0.1502 -0.6201 0.4917
-0.2378 -0.6502 0.6272
-0.2965 -0.6113 0.7052
-0.4117 -0.6365 0.8081
-0.2842 -0.6738 0.3167
-0.4042 -0.7070 0.3447
-0.1769 -0.6923 0.2909
-0.1669 -0.6608 0.2441
-0.2328 -0.6654 0.8546
0.0230 -0.1773 0.2664
-0.1235 -0.6875 0.5132
-0.1296 -0.6184 0.5525
-0.4107 -0.6407 0.7745
-0.3700 -0.6512 0.2173
-0.2403 -0.6492 0.4612
-0.3019 -0.6456 0.2232
-0.2338 -0.6367 0.2852
-0.0896 -0.7237 0.4255
-0.2184 -0.6602 0.5026
-0.1844 -0.6638 0.4244
-0.1607 -0.6405 0.2386
-0.3106 -0.6756 0.2804
-0.3815 -0.6375 0.4009
-0.3827 -0.6566 0.3453
-0.3818 -0.6617 0.7545
-0.1076 -0.7096 0.6275
-0.3409 -0.6577 0.6596
-0.0430 -0.6347 0.4885
-0.2119 -0.6978 0.8606
-0.3124 -0.6268 0.7894
-0.2638 -0.6500 0.4745
-0.0952 -0.6457 0.7645
-0.0332 -0.6466 0.5352
-0.0891 -0.6868 0.7299
-0.0276 -0.6301 0.4718
-0.0681 -0.6491 0.5658
-0.1641 -0.6572 0.7704
-0.0487 -0.6204 0.3689
-0.1117 -0.6579 0.3730
-0.3026 -0.6946 0.8331
-0.2695 -0.6531 0.6675
-0.2098 -0.6319 0.3861
-0.4655 -0.6779 0.7871
-0.3812 -0.6389 0.4404
0.0519 -0.6791 0.5402
-0.0125 -0.6360 0.7534
-0.0055 -0.6363 0.6879
0.0078 -0.6226 0.5475
0.0153 -0.6362 0.4914
-0.0220 -0.6403 0.5871
-0.1698 -0.6282 0.8059
-0.0905 -0.6154 0.2910
-0.4393 -0.6858 0.8442
-0.4230 -0.6479 0.7409
-0.4224 -0.6560 0.6829
0.0577 -0.6285 0.5692
-0.0044 -0.6567 0.8697
0.0644 -0.6390 0.5122
-0.0007 -0.6268 0.7996
0.0092 -0.6458 0.7429
0.0292 -0.6443 0.5414
-0.0282 -0.6376 0.7665
-0.0227 -0.6380 0.7002
-0.0048 -0.6425 0.5692
-0.0670 -0.6215 0.7877
-0.0582 -0.6458 0.7347
-0.0533 -0.6422 0.6677
0.0138 -0.6382 0.3781
-0.0601 -0.6482 0.5027
-0.2508 -0.6466 0.7572
-0.1895 -0.6508 0.5363
-0.2196 -0.6266 0.5519
-0.1657 -0.6331 0.2907
0.0142 -0.6238 0.2490
0.1201 -0.6399 0.5865
0.1277 -0.6361 0.5154
0.0690 -0.6665 0.8419
0.0764 -0.6433 0.7478
0.0981 -0.6490 0.5499
0.0374 -0.6278 0.7658
0.0451 -0.6392 0.7076
0.0513 -0.6305 0.6412
0.0023 -0.6365 0.5077
-0.1239 -0.6428 0.7287
-0.0932 -0.6394 0.5279
-0.1282 -0.6368 0.5573
-0.0408 -0.6652 0.2572
-0.2334 -0.6493 0.6254
-0.4228 -0.6683 0.7280
-0.3559 -0.6319 0.6020
-0.3656 -0.6612 0.5523
0.1016 -0.6401 0.4871
0.0216 -0.6349 0.2862
-0.0520 -0.6419 0.1961
-0.1018 -0.6407 0.2774
-0.2839 -0.6404 0.4153
-0.1821 -0.6721 0.3370
0.1453 -0.6433 0.7933
0.1494 -0.6421 0.7305
0.1545 -0.6393 0.5536
0.1542 -0.6148 0.4809
0.1135 -0.6627 0.8478
0.1132 -0.6313 0.7538
0.0851 -0.6209 0.2697
0.0236 -0.6558 0.6126
-0.0160 -0.6193 0.6298
-0.0708 -0.6212 0.8272
-0.1373 -0.6411 0.8398
-0.0571 -0.6433 0.4371
-0.1045 -0.6504 0.5984
-0.0862 -0.6365 0.4680
-0.1190 -0.6383 0.4962
-0.1781 -0.6240 0.6810
-0.0739 -0.6189 0.3378
-0.1574 -0.6378 0.5633
-0.2112 -0.6404 0.7213
-0.2002 -0.6315 0.6552
-0.3363 -0.7557 0.9309
-0.3091 -0.6480 0.7475
-0.3272 -0.6342 0.6450
0.1745 -0.6325 0.3336
-0.0426 -0.6862 0.3147
0.2339 -0.6212 0.3711
0.2109 -0.6523 0.4073
0.1707 -0.6444 0.4365
0.1791 -0.6348 0.3005
0.1439 -0.6444 0.3323
0.1064 -0.6254 0.3858
0.1131 -0.6334 0.3245
0.0475 -0.4385 0.2634
-0.0186 -0.6350 0.3763
-0.0669 -0.6315 0.2493
0.0399 -0.6539 0.4591
0.2128 -0.6492 0.3460
0.1449 -0.6529 0.3403
0.1385 -0.6327 0.3645
0.0814 -0.6321 0.3216
0.0788 -0.6395 0.3605
0.1097 -0.6294 0.3552
-0.2207 -0.6852 0.3261
-0.1374 -0.6407 0.3287
0.2350 -0.6320 0.4054
0.1759 -0.6498 0.3772
0.1680 -0.6162 0.3579
0.1699 -0.6352 0.4008
-0.0252 -0.6368 0.4474
0.1848 -0.6552 0.3089
-0.0856 -0.6369 0.4411
0.0128 -0.6321 0.3784
0.2108 -0.6340 0.7295
0.2213 -0.6436 0.4985
0.2138 -0.6489 0.6280
0.1848 -0.6491 0.7071
0.0346 -0.6297 0.4768
0.0427 -0.6294 0.4089
-0.0768 -0.6347 0.6273
-0.0181 -0.6654 0.3488
-0.1195 -0.6604 0.6737
-0.0497 -0.6528 0.3745
-0.1592 -0.5891 0.7673
-0.1495 -0.6211 0.6778
-0.1124 -0.6189 0.4291
-0.1507 -0.6386 0.4964
-0.1448 -0.6389 0.3961
0.1382 -0.6166 0.3230
0.0661 -0.5895 0.4365
0.0730 -0.6022 0.3772
0.2260 -0.5913 0.3346
0.2134 -0.6273 0.2710
0.1315 -0.6261 0.4294
-0.0713 -0.6360 0.2788
0.2460 -0.6348 0.5912
0.1423 -0.6251 0.6110
-0.1029 -0.6165 0.3701
0.2523 -0.6399 0.5283
0.1311 -0.6435 0.4326
-0.3376 -0.6034 0.7822
0.2219 -0.5949 0.7944
-0.0539 -0.6544 0.6743
-0.0418 -0.6430 0.5970
-0.1419 -0.6683 0.3319
0.0183 -0.6294 0.3166
0.1684 -0.6154 0.8087
-0.1853 -0.6151 0.5806
-0.0672 -0.6310 0.2422
0.2550 -0.6791 0.7980
0.2052 -0.6246 0.3363
-0.0119 -0.6313 0.3137

