0.3374 -1.0332 0.6451
0.3096 -1.1227 0.6344
0.2781 -1.0394 0.5257
0.1231 -1.0720 0.1933
0.1404 -1.0301 0.3096
0.0261 -0.8935 0.5754
0.1212 -1.0739 0.4873
0.1182 -1.0873 0.2834
0.0616 -1.0094 0.4027
0.0182 -0.9575 0.5758
0.0278 -0.9903 0.4490
-0.1091 -0.9203 0.8707
-0.2246 -0.5529 0.4248
0.2876 -1.0221 0.6816
0.2431 -1.0589 0.5075
0.0074 -1.0481 0.4334
0.3093 -0.9963 0.5823
0.2559 -1.0095 0.4640
0.1998 -1.0405 0.4927
0.1464 -1.1043 0.5087
0.2073 -1.0571 0.3324
0.2199 -1.0534 0.3606
0.2369 -1.0700 0.3907
-0.0663 -1.0814 0.1734
0.0994 -1.0627 0.2183
0.3712 -1.0305 0.6353
0.2512 -1.1029 0.2916
-0.2224 -0.5383 0.4242
0.1531 -1.0619 0.0696
0.1355 -1.0123 0.6447
-0.2209 -0.8443 0.5183
-0.1988 -0.9590 0.6872
0.1360 -1.2272 0.4619
-0.0523 -1.0772 0.2007
0.0007 -1.0674 0.5863
0.2348 -1.0582 0.0369
0.2790 -1.0303 0.4751
0.3438 -0.9816 0.6183
0.0931 -1.0313 -0.0048
-0.2596 -1.0681 -0.1015
0.4012 -1.1539 0.2988
0.1468 -0.4906 0.5152
0.1957 -0.5675 0.4914
0.4666 -1.1467 0.6611
0.3802 -0.9897 0.5935
0.2228 -0.6937 0.6445
0.2561 -1.0600 -0.1276
0.3180 -1.1184 0.2717
-0.2435 -0.5752 0.4227
0.2573 -1.1120 0.3708
-0.1639 -1.0987 0.4334
-0.2559 -1.0564 -0.1381
-0.2424 -1.0739 -0.1422
0.1298 -1.0615 0.4664
-0.2210 -1.0050 0.5211
0.0695 -1.0159 0.6027
-0.2718 -1.0702 0.2406
0.0503 -1.0245 0.2974
0.0900 -0.6157 0.5407
-0.3265 -1.1021 0.1120
0.2869 -1.1640 0.6420
-0.1294 -1.0339 0.0001
0.3467 -1.0603 0.3776
-0.1161 -1.0532 0.2818
0.4056 -1.1528 0.1372
0.2800 -0.9997 -0.0401
0.2146 -1.0919 0.2076
0.2113 -0.9496 0.6603
0.1483 -1.0588 0.3560
0.1668 -1.1272 0.7910
0.0211 -0.9356 0.6551
-0.1513 -1.1377 0.2110
-0.2173 -1.1284 -0.0101
-0.2469 -0.8162 -0.1054
-0.3265 -0.9895 0.1786
0.2767 -1.0279 0.2272
0.5584 -1.0611 0.4292
0.2925 -0.6051 0.1995
0.4669 -1.0300 0.3202
0.4485 -1.1425 0.2473
0.4804 -1.0789 0.6848
0.4686 -1.0790 0.6446
-0.2915 -1.0342 -0.0051
-0.3059 -1.1024 -0.1138
0.3544 -0.9823 0.6464
-0.2654 -1.0579 -0.0814
-0.1792 -0.8201 0.8453
-0.2129 -1.1005 0.4753
0.2218 -1.0336 0.2556
0.1808 -1.1060 -0.0217
0.2112 -1.0455 0.2855
0.2266 -0.9941 0.7262
0.1475 -1.0339 0.1958
0.0600 -0.8581 0.6137
0.0315 -1.0324 0.4093
0.6141 -1.0532 0.5128
-0.0260 -1.0527 -0.0507
0.6558 -1.0713 0.7461
0.1392 -1.0813 0.0304
0.1354 -1.0187 -0.0216
0.2490 -0.9960 0.5811
0.3666 -1.0315 0.3452
0.3790 -1.0180 -0.0819
0.5918 -1.0265 0.4958
0.3758 -0.9589 -0.2179
0.3476 -1.0447 -0.1654
0.3734 -1.0587 -0.0624
0.3151 -1.0494 0.0088
0.2662 -1.0176 -0.1912
0.1570 -0.4522 0.4719
0.3596 -1.0711 0.6242
0.1033 -1.0539 0.3265
0.0438 -1.1000 0.3735
-0.1568 -1.0623 0.2417
-0.1984 -1.0908 -0.1519
-0.0072 -1.0301 -0.1089
0.1430 -0.5909 0.4924
0.0428 -0.9914 0.3801
0.1554 -1.0152 0.6506
-0.0580 -0.9075 0.5964
0.0418 -1.0580 0.4611
0.1984 -0.8513 0.6160
0.1350 -0.4791 0.4655
0.3432 -0.9906 0.5893
0.3458 -0.9766 0.5928
-0.0802 -0.5631 0.5320
0.2284 -0.7741 0.5873
-0.3064 -0.9534 0.1679
0.0629 -1.0146 0.3849
0.3914 -0.9924 -0.1086
-0.2887 -1.0287 -0.0528
0.3828 -1.0426 0.1140
0.5016 -1.0194 0.7253
0.5674 -1.0435 -0.0890
0.6602 -1.0330 0.3382
-0.2593 -1.0628 -0.1662
0.4183 -1.0932 0.3365
0.1195 -1.0607 0.1947
-0.2031 -1.0062 0.1853
0.4759 -1.0094 -0.2569
0.0052 -1.0149 0.3058
0.5656 -1.0446 0.0557
0.3510 -1.0384 0.3513
0.1580 -0.6106 0.5310
0.5708 -1.0240 0.3591
0.6097 -1.0380 0.2953
0.5308 -1.0580 0.1022
0.2020 -1.0750 -0.1585
0.1908 -1.0413 0.2344
0.2278 -1.0491 0.4439
0.3315 -1.0431 0.7308
0.2955 -0.9149 0.6771
0.2505 -1.0373 0.3970
0.2337 -1.0376 0.3082
0.2398 -1.0781 0.2933
0.2512 -1.0399 0.4439
0.4295 -1.0449 -0.1438
0.4356 -0.9977 0.1452
0.3419 -1.0306 0.4780
0.1259 -1.0402 -0.0605
0.5049 -1.0156 -0.2701
0.3642 -1.0444 0.4318
0.7287 -1.0625 0.6482
-0.2207 -1.0409 -0.1004
0.3605 -1.0693 0.2784
-0.2561 -1.0414 -0.2563
0.4139 -1.0512 -0.1011
0.3936 -1.0554 0.2197
0.3750 -1.0890 0.1461
0.3484 -1.0731 0.2211
0.2449 -0.8897 0.6435
0.0582 -0.6063 0.5426
-0.1235 -0.7850 0.7426
-0.0732 -0.8342 0.5416
0.3682 -1.1035 0.7629
0.5010 -1.0638 0.3260
0.4829 -1.0648 0.3365
0.0254 -0.7620 0.5826
0.4440 -1.0060 -0.2366
0.5414 -1.0395 0.2036
0.3871 -1.0382 0.4396
0.2998 -0.4918 0.3064
0.1497 -1.0448 0.0782
0.4322 -1.0425 -0.0496
0.3580 -1.0460 -0.1189
0.1921 -0.9603 -0.3791
0.2932 -1.0385 0.0483
0.4672 -1.0934 -0.1137
0.5863 -1.0092 0.2550
0.3781 -1.0151 -0.4597
0.2251 -0.9740 -0.3916
0.1839 -0.9939 -0.1520
0.1724 -0.4960 0.4486
0.2341 -0.8650 0.6760
0.0963 -0.9896 0.0032
0.1244 -0.4653 0.4509
0.4001 -1.0848 -0.2609
0.2732 -1.1249 -0.2684
0.2483 -1.0604 -0.2967
0.3135 -1.0677 0.1374
0.2460 -1.1305 -0.0785
0.1759 -1.0230 -0.1997
0.2016 -1.0726 -0.0280
0.1289 -1.1104 -0.0060
0.4689 -1.0608 -0.4414
0.0679 -0.0708 0.1095
0.3807 -1.0332 -0.4617
0.0665 -0.4722 0.4392
0.1185 -0.3772 0.5125
0.1239 -0.4493 0.5062
0.0791 -0.9988 0.6227
0.1397 -0.3541 0.4572
0.0614 -1.0565 0.3995
0.5375 -1.0803 0.2275
0.1993 -0.6049 0.4822
0.1454 -1.0678 0.3244
0.1984 -1.0885 0.2546
0.3547 -1.0983 0.3891
0.4503 -1.0882 -0.2476
0.5873 -1.1908 -0.2579
0.2772 -1.0500 -0.4047
0.7797 -1.2480 1.0562
0.2550 -1.1233 -0.3090
0.3058 -1.0874 -0.0347
0.1247 -0.4315 0.4917
0.0078 -1.0041 0.4210
0.1004 -0.4521 0.5104
0.0199 -0.7053 0.4983
0.7486 -1.1500 -0.1248
0.6713 -1.0950 -0.2182
0.6311 -1.1034 -0.2851
0.7813 -1.0854 0.0013
0.7758 -1.1616 -0.0545
0.8793 -1.0772 0.1861
0.6031 -1.1086 -0.3052
0.9226 -1.1175 0.2600
0.8754 -1.1314 0.1851
0.8484 -1.0500 0.1933
1.2886 -1.1506 0.9342
0.4330 -0.9668 -0.4254
0.5627 -1.1420 -0.1202
0.7956 -1.1922 0.4060
0.2886 -1.0991 0.0201
0.1981 -1.1024 -0.1620
0.5653 -0.9335 0.8215
0.9505 -1.0498 0.5536
0.8405 -1.0698 0.4351
0.3841 -1.0730 -0.0533
0.2025 -1.1300 0.5318
0.2031 -1.1564 0.6502
0.3059 -0.4906 0.6720
0.1402 -0.6585 0.5753
1.6298 -1.1857 0.6060
1.1783 -1.1104 0.1556
1.3172 -1.1802 0.2861
0.6833 -1.0007 -0.3150
0.6926 -1.1033 -0.3467
1.4606 -1.1092 0.5454
1.4018 -1.0923 0.5288
1.1269 -1.1158 0.2324
0.6984 -1.1000 -0.2084
0.6574 -1.0827 -0.1970
0.2268 -1.1529 0.3409
0.6729 -1.1098 0.7799
0.7963 -1.1181 0.8605
0.4413 -1.0875 -0.3394
0.4661 -1.1339 0.3002
0.6655 -1.2068 0.5901
0.4825 -1.1296 -0.2625
0.6139 -1.1527 -0.0921
0.5983 -1.1021 0.3641
0.7617 -1.1402 0.1325
0.7795 -1.1571 0.1630
0.7909 -1.1313 0.2278
0.7006 -1.1019 0.3636
0.7561 -1.1259 0.1942
0.4474 -1.1108 -0.0571
0.3219 -1.1387 -0.2539
0.4306 -1.1353 -0.1172
0.3520 -1.1513 -0.2547
1.0538 -1.1009 0.6495
0.7438 -1.1473 0.1919
1.4007 -1.1191 0.8775
1.3284 -1.2204 0.2384
1.2069 -1.1905 0.4223
0.6705 -1.1486 0.3636
0.6709 -1.1173 0.8257
1.6540 -1.1081 0.7558
1.3478 -0.7843 0.6405
0.8061 -1.1045 -0.1301
1.5802 -1.0548 0.8788
0.7944 -1.1695 -0.1110
1.2838 -1.0961 0.5488
0.9834 -1.1049 0.4331
0.9460 -1.1408 0.4374
0.8094 -1.1187 0.4492
0.4201 -1.0332 0.0570
0.6620 -1.0621 -0.4312
0.5750 -1.1480 -0.6173
0.5612 -1.1844 -0.6200
0.6107 -1.1115 -0.5140
0.6027 -1.0841 -0.2274
1.1572 -1.1276 0.0324
1.3381 -1.0899 0.0465
0.3945 -0.3609 0.2306
0.7398 -1.1095 0.3971
0.5428 -1.1440 0.1303
1.3724 -1.0827 0.1843
0.6828 -1.1035 -0.4175
0.5360 -1.1697 -0.6016
0.7206 -1.1021 0.0212
1.1828 -1.1748 0.0795
0.6680 -1.1757 -0.5355
1.2234 -1.2400 -0.1016
0.6450 -1.2735 -0.5884
0.9120 -1.0558 -0.0583
1.3795 -1.0853 0.3800
1.3394 -1.1722 0.3783
1.3022 -1.1939 0.6185
1.5484 -1.1875 0.9918
0.8651 -1.1057 0.3492
0.6715 -1.1977 -0.5665
0.6062 -1.1335 -0.6431
0.4234 -1.1716 0.3634
0.4870 -1.2029 0.3888
0.6299 -1.2367 0.4962
1.0392 -1.1065 -0.3242
0.9316 -0.9764 -0.3056
0.8073 -1.0646 -0.4353
0.6428 -1.0100 -0.1502
0.6790 -1.1356 -0.1843
0.9240 -1.0905 -0.3390
1.0425 -1.1231 -0.2754
0.6744 -1.1007 -0.3964
0.9964 -0.9957 -0.1200
0.7934 -1.1186 -0.2715
1.0553 -1.0792 -0.2390
0.9838 -1.0603 -0.0609
1.1429 -1.1144 -0.2733
0.5070 -1.1625 0.3667
0.6917 -1.0397 -0.0229
1.1020 -1.1816 -0.2978
0.5203 -1.1233 -0.2790
0.5976 -1.1122 -0.0465
1.0003 -1.0737 -0.3816
1.1018 -1.1343 0.0101
1.0167 -1.1026 -0.0205
0.4323 -1.1200 -0.4058
0.5211 -0.9842 -0.1517
0.5640 -1.1476 0.3572
0.3528 -1.1938 0.2381
1.5613 -1.1190 -0.0780
1.5562 -1.1537 -0.0925
1.4456 -1.1218 0.1003
1.1408 -1.1265 0.3562
0.7303 -1.0824 -0.0884
0.6995 -1.1001 -0.2771
0.7866 -1.1016 0.0001
0.9283 -1.1042 0.0341
0.6232 -1.0485 -0.5255
0.2122 -1.1224 0.0741
0.5781 -1.0725 -0.0693
0.7144 -1.0060 -0.4383
0.2216 -1.1241 0.0252
0.5533 -1.1584 0.3122
0.6658 -1.1295 0.4034
0.7546 -1.0725 0.1344
0.2350 -1.2053 -0.1394
0.6905 -1.0765 -0.3151
0.8885 -1.1260 0.3765
0.7196 -1.1415 -0.3117
0.6395 -1.0836 -0.2451
0.9294 -0.7683 -0.3346
0.5180 -1.1617 -0.3816
0.8206 -1.1226 -0.1193
0.7539 -1.0661 -0.1056
0.8746 -1.0402 0.0639
0.5764 -0.9197 -0.0507
0.4515 -0.2148 -0.0025
0.4241 0.0653 -0.0632
1.6253 -1.0849 -0.0277
1.7427 -1.0961 0.0909
1.6947 -1.0602 0.0284
1.2805 -1.1974 0.0911
1.3993 -1.0590 -0.1052
1.5103 -1.0788 -0.0456
1.1773 -1.1086 0.1332
1.7403 -1.1052 0.3979
1.1196 -1.0468 0.4118
1.4080 -1.1116 0.2370
1.0560 -1.1380 0.3899
0.2319 -1.1293 0.0062
0.7478 -1.1061 -0.0561
1.1443 -1.0907 0.1422
1.4288 -0.9500 0.6961
0.6659 -1.0827 -0.2875
1.1394 -1.1010 0.3946
0.7586 -1.1116 0.0106
0.8800 -1.1079 0.3387
0.9386 -1.1535 0.1342
1.3568 -1.2691 0.4487
1.1094 -1.1776 0.5770
0.3075 -0.5334 -0.0959
0.4633 -0.0412 -0.0236
0.3914 -0.9985 -0.0551
1.6759 -1.0695 -0.2899
1.7039 -1.0299 0.0436
1.7483 -0.9795 -0.0891
2.0861 -1.2147 -0.0355
1.7273 -1.0219 0.0257
1.9552 -1.1739 0.1304
1.7249 -1.0447 0.3789
1.7594 -1.0277 -0.3224
1.6109 -1.0242 -0.3503
1.8297 -1.0050 -0.3141
1.9219 -1.0770 -0.0921
1.3402 -1.0785 -0.0830
1.4244 -1.0854 -0.4871
1.6234 -1.1049 -0.3611
1.5165 -1.1351 0.0353
0.8964 -1.0920 0.3393
0.5217 -1.0856 0.2373
0.8662 -1.1194 0.3392
0.8041 -1.1009 0.2506
1.4860 -1.0836 0.5467
1.4402 -0.9973 0.5097
0.4831 -1.1004 -0.5520
0.5144 -1.0915 -0.0068
1.8076 -1.1949 0.4660
0.6450 -1.0860 -0.1331
1.4157 -1.1124 0.1614
1.5041 -1.1326 -0.1400
1.0098 -1.0709 -0.2730
1.3119 -1.0701 0.0856
0.4592 -1.0670 -0.4310
0.8085 -1.0840 0.0995
0.6756 -1.0434 0.2175
0.4679 -1.0748 -0.3235
1.1448 -1.0927 -0.0774
0.5766 -1.1853 0.3131
0.9482 -1.0915 -0.3682
1.6345 -1.0523 -0.0923
1.7392 -1.0294 0.2648
0.4226 -1.0612 -0.2389
1.7073 -1.1067 0.3563
1.7065 -1.0455 0.3844
1.5012 -1.0004 0.2980
1.6745 -0.9956 0.4341
0.9031 -1.1056 -0.4567
0.3482 -1.1286 0.2274
0.1842 -1.0725 -0.0390
0.8136 -1.0083 0.0958
0.4185 -1.0682 -0.1151
1.6429 -1.0568 0.1499
0.2384 -1.1238 -0.0518
0.2767 -1.0924 -0.0886
0.9840 -0.5860 0.0080
0.2342 -0.9920 -0.1701
0.3997 -0.9710 0.1540
0.6856 -0.0969 -0.1523
1.5993 -1.0423 -0.3334
0.8967 -1.1002 0.2767
1.5081 -1.0275 0.0693
0.8453 -0.9560 0.2220
1.1610 -1.1082 0.0215
0.8427 -1.0587 0.1705
0.4345 -1.0837 -0.0772
0.6837 -1.0820 -0.4408
0.7731 -1.0771 0.0023
0.6744 -1.0959 -0.3721
1.4371 -1.1073 0.1728
0.8608 -1.1185 0.3140
0.1645 -1.0292 -0.0008
1.7152 -1.3249 -0.2983
0.9262 -1.0765 -0.3565
1.2129 -1.1224 0.2042
0.8065 -1.0559 -0.6024
0.6244 -1.0983 -0.4544
1.0715 -1.0028 -0.0976
1.8414 -1.0838 0.2015
0.9394 -1.0924 -0.0521
0.6128 -1.1175 -0.0829
1.3044 -1.1304 0.1787
0.6654 -1.0689 -0.0170
1.1810 -1.0586 0.2876
0.9483 -0.7478 0.2250
1.5213 -1.1426 -0.3494
1.6836 -0.9858 -0.3474
1.0434 -1.0823 0.2468
1.7277 -1.0924 0.2645
1.6489 -1.0047 -0.3083
0.8673 -1.1006 0.2675
0.1961 -1.0961 0.0802
0.5289 -1.0929 0.2238
1.1065 -1.0769 0.3380
1.8563 -1.0830 -0.4569
1.0783 -1.0885 0.2737
1.1071 -1.0900 0.2342
0.7240 -1.0424 -0.4248
0.5910 -1.1225 -0.4018
0.7061 -1.0321 0.0198
0.9800 -1.1217 -0.2149
1.6619 -1.0663 0.1858
1.0136 -1.1109 -0.3162
1.3117 -1.0487 0.0478
0.8152 -1.0953 -0.2910
1.4003 -1.0360 -0.2093
1.3944 -1.2123 0.0789
1.0439 -1.1032 0.0032
0.9230 -1.1027 -0.3950
1.1605 -1.0983 -0.1047
0.7502 -1.0537 -0.4687
1.2110 -1.0699 -0.4358
1.1893 -0.9329 -0.0971
0.2230 -1.0473 0.0672
1.3596 -1.0446 -0.7540
0.8979 -1.0633 0.0329
1.6775 -1.0539 -0.0215
1.1672 -1.0991 -0.0731
1.5379 -1.1039 -0.0726
1.6330 -1.0832 0.1795
0.3011 -1.1690 -0.6803
0.4981 -1.1347 0.1885
0.8167 -1.1320 0.2587
0.7340 -1.1098 -0.6533
0.5589 -1.0794 0.2126
0.6840 -1.1232 -0.7277
1.1130 -1.1203 -0.1352
0.7756 -1.0864 -0.3700
1.3343 -1.0349 -0.7938
1.3915 -1.0879 -0.7188
1.2869 -1.0886 -0.3261
0.9566 -1.0910 -0.3000
0.9655 -1.0617 -0.0942
0.7752 -1.1044 -0.0726
0.4727 -1.0890 0.0538
0.5600 -1.0967 -0.7278
0.3046 -0.9858 -0.4342
1.3878 -1.0966 0.1646
1.8344 -1.0817 0.1729
2.0089 -1.1696 0.1973
1.7413 -1.1155 0.1625
1.3371 -1.0893 0.1377
1.6326 -1.2477 0.1494
0.4555 -1.1512 -0.4531
1.8352 -1.0542 0.0898
1.1184 -1.0945 0.0693
0.7984 -1.0768 -0.3948
0.4435 -1.1093 -0.3435
0.7854 -1.0439 0.0116
1.6375 -1.0698 -0.0020
0.4597 -1.0877 -0.3206
1.8500 -1.0463 -0.0206
1.1392 -1.0784 -0.0328
1.7523 -0.9756 -0.0537
1.6144 -1.0342 -0.3760
0.4813 -1.1224 -0.2566
0.2462 -1.0631 -0.0778
1.2106 -1.2275 -0.1062
0.2286 -1.0534 -0.1359
0.2410 -1.0542 -0.0538
0.6828 -1.1125 -0.5349
0.9898 -1.0698 -0.4964
0.4124 -1.1056 -0.5416
1.5579 -1.0831 0.0838
1.3779 -1.1159 -0.7887
1.7291 -1.0746 0.0590
1.0674 -1.0990 0.0664
0.3181 -0.9553 -0.4186
1.3425 -1.0981 -0.0165
0.7657 -1.0268 -0.4348
1.5413 -1.1179 -0.0343
0.7462 -1.0850 -0.3995
0.4491 -1.0992 -0.3485
1.7579 -0.9454 -0.0929
1.5019 -1.1072 -0.0889
0.8638 -1.1152 -0.0584
0.4770 -1.1114 -0.2959
1.6356 -1.0197 -0.3664
0.7932 -1.1155 -0.2831
0.7775 -1.1003 -0.2613
0.2708 -1.0763 -0.0874
1.7030 -0.9835 -0.3103
1.5316 -1.1369 -0.2814
1.7039 -1.0176 -0.2927
0.6984 -1.1068 -0.2064
1.1628 -1.1307 -0.2307
0.6382 -0.9833 -0.2053
1.8480 -1.0979 -0.2343
1.0716 -1.0991 -0.1944
1.2363 -1.0561 0.1632
0.3102 -0.9891 -0.3859
1.7828 -1.0570 -0.5719
0.4168 -1.1146 -0.2397
0.7639 -1.1012 -0.1083
1.4266 -1.1035 -0.1255
1.5156 -1.0706 -0.0837
0.8990 -1.0767 0.1192
1.7806 -0.9768 -0.3140
0.3361 -0.9770 -0.3978
1.0024 -1.1093 -0.0522
1.5778 -1.1055 -0.1082
1.2387 -1.1114 -0.1585
1.7975 -1.0722 0.0999
1.0316 -1.1039 -0.3188
0.6682 -1.1047 -0.4032
0.4868 -1.1165 -0.6296
1.4062 -1.0683 -0.1109
0.7448 -1.1057 0.0133
1.7182 -1.0622 -0.1791
1.1009 -1.1037 0.0503
0.9730 -1.1254 -0.2117
1.0820 -1.1021 -0.2559
1.1260 -1.0814 -0.2774
0.9051 -1.0595 -0.3929
1.4899 -1.0359 -1.0487
0.5082 -1.1805 -0.8392
1.1422 -1.0948 -0.4306
0.8408 -1.0617 -0.3485
0.6573 -1.0934 -0.1443
1.7324 -1.0921 0.0307
1.4975 -1.1213 0.0350
0.3560 -1.1066 -0.7700
1.8493 -0.9837 -0.4163
1.1838 -1.1473 -0.0911
0.6052 -1.1050 -0.6167
1.5003 -1.0879 -0.2582
0.3589 -1.1021 -0.5216
1.0489 -1.1053 -0.2708
0.3999 -1.0430 -0.4521
0.5139 -1.1426 -0.2697
0.6065 -1.1053 -0.1585
0.8174 -1.1064 -0.9196
1.1347 -1.0946 -1.0140
1.2303 -0.6471 -0.8823
0.3851 -1.0308 -0.4453
0.9374 -1.0136 -0.1443
1.7740 -0.9977 -0.3356
1.0518 -1.0339 -0.0709
0.8967 -1.1164 -0.4561
1.0571 -1.0939 0.2605
1.1722 -2.8638 -1.0706
0.4301 -1.0777 -0.5400
0.3275 -1.1194 -0.7918
0.4178 -1.1065 -0.7591
0.4792 -1.1038 -0.7074
0.4602 -1.1803 -0.4713
0.5149 -1.1207 -0.8912
1.1547 -1.1073 -0.5079
0.8103 -1.1063 -0.9456
2.0016 -1.2058 -0.5082
1.0887 -1.0949 -0.8374
1.1545 -1.1280 -0.2982
1.4229 -1.1092 -0.4045
0.8608 -1.2060 -0.8170
0.4274 -1.1497 -1.0316
0.9424 -1.1247 -1.0783
1.0290 -1.1485 -0.3087
1.2743 -1.1223 -1.0712
1.0415 -1.1096 -0.3500
1.3758 -1.0773 -0.7315
1.9586 -1.9490 -0.8610
0.6164 -1.2263 -1.1518
0.6588 -1.1497 -1.0679
0.7799 -1.1452 -1.0353
1.0610 -1.1195 -0.9796
1.1215 -1.0726 -0.4333
0.9313 -1.0756 -0.3832
0.4999 -1.0998 -1.0750
1.3997 -1.0165 -0.7842
1.2595 -0.9785 -0.5980
1.0238 -1.1788 -0.3506
1.1136 -1.0490 -0.5513
0.7111 -1.1119 -1.1740
1.2050 -1.1169 -0.5619
1.0204 -1.1586 -0.4993
0.2640 -1.1367 -0.9953
0.5235 -1.1255 -1.0645
1.2361 -1.1266 -0.5830
0.9937 -1.1197 -0.9618
0.8615 -1.4103 -1.3720
0.5450 -1.1177 -1.4030
0.8581 -1.1803 -1.7161
0.8953 -1.1116 -1.6521
0.3003 -1.1308 -1.1175
0.8748 -1.1120 -1.6197
0.9719 -1.1077 -1.4524
1.1836 -1.1064 -0.7755
0.8190 -1.1032 -0.4400
0.4787 -1.1327 -1.0473
1.2613 -1.1035 -0.9906
0.3779 -1.1482 -1.3013
1.0948 -0.3874 -1.4541
0.8453 -1.1395 -0.6979
1.1049 -0.3760 -1.3830
1.5195 -0.3792 -1.2772
1.2103 -0.4121 -1.7933
1.1216 -0.4018 -1.6572
1.1154 -0.4133 -1.6539
1.2732 -0.3879 -1.7769
1.0766 -0.3846 -1.5014
1.1780 -0.4022 -1.6385
1.1325 -0.3840 -1.5619
1.2806 -0.3914 -1.7384
1.2946 -0.3971 -1.7222
1.2547 -0.4021 -1.5454
1.2411 -0.4112 -1.5129
1.3607 -0.3899 -1.6164
1.3332 -0.3871 -1.5638
1.4042 -0.4021 -1.6213
1.3503 -0.3792 -1.5314
1.1329 -0.3520 -1.2971
1.1857 -0.3953 -1.3619
1.3927 -0.3833 -1.5397
1.3113 -0.3915 -1.4572
1.2151 -0.3878 -1.3666
1.3620 -0.3951 -1.4925
1.3390 -0.3886 -1.4648
1.2115 -0.3873 -1.3433
1.1502 -0.3890 -1.2939
1.3861 -0.4001 -1.4835
1.3744 -0.3917 -1.4618
1.2838 -0.3865 -1.3870
1.4985 -0.3987 -1.5581
1.3031 -0.3900 -1.3980
1.3279 -0.3930 -1.3986
1.2193 -0.3950 -1.3135
1.2146 -0.4048 -1.2662
1.4425 -0.4012 -1.4799
1.5155 -0.4057 -1.5321
1.2313 -0.3750 -1.2894
1.1751 -0.3938 -1.2400
1.2493 -0.3849 -1.2958
1.4096 -0.3975 -1.4159
1.2095 -0.3710 -1.2521
1.3700 -0.3959 -1.3807
1.1612 -0.3720 -1.1983
1.2273 -0.3879 -1.2479
1.5119 -0.3831 -1.4769
1.3869 -0.3998 -1.3717
1.1652 -0.3960 -1.2074
1.5194 -0.3969 -1.4631
1.2567 -0.3786 -1.2586
1.2866 -0.3971 -1.2821
1.5315 -0.3873 -1.4300
1.2353 -0.3897 -1.2093
1.2886 -0.3911 -1.2372
1.5642 -0.3884 -1.4313
1.5031 -0.3745 -1.3596
1.5766 -0.3716 -1.4331
1.4154 -0.3863 -1.3156
1.6236 -0.3984 -1.4407
1.4775 -0.3942 -1.3292
1.4554 -0.3936 -1.3071
1.2973 -0.3903 -1.1863
1.4772 -0.3940 -1.2992
1.4787 -0.3980 -1.2913
1.3627 -0.3848 -1.1981
1.3143 -0.3992 -1.1684
1.4097 -0.3844 -1.2196
1.3049 -0.3900 -1.1431
1.2548 -0.3783 -1.1045
1.2406 -0.3976 -1.1080
1.4614 -0.3830 -1.2399
1.4813 -0.3897 -1.2488
1.4826 -0.3843 -1.2191
1.3684 -0.4174 -1.1507
1.3878 -0.3949 -1.1689
1.3954 -0.3848 -1.1698
1.4232 -0.3956 -1.1854
1.4084 -0.3778 -1.1583
1.5768 -0.3989 -1.2443
1.4960 -0.3918 -1.1992
1.3874 -0.3782 -1.1097
1.5949 -0.3905 -1.2031
1.1020 -0.3926 -1.4053
1.4579 -0.3887 -1.4612
1.2736 -0.3965 -1.3955
1.1626 -0.3902 -1.2123
1.4378 -0.3956 -1.1646
1.0729 -0.3902 -1.4700
1.2845 -0.4241 -1.5354
1.3399 -0.4196 -1.5564
1.4843 -0.4061 -1.6135
1.3150 -0.4103 -1.3419
1.3323 -0.3624 -1.2414
1.4656 -0.3945 -1.3390
1.3295 -0.3875 -1.2243
1.5386 -0.3731 -1.3400
1.4291 -0.3821 -1.1745
1.0900 -0.3996 -1.5783
1.1288 -0.3815 -1.5448
1.1075 -0.3971 -1.5063
1.1603 -0.3908 -1.5499
1.2724 -0.3886 -1.6340
1.1508 -0.3848 -1.4956
1.3922 -0.3923 -1.7073
1.3274 -0.4039 -1.6185
1.3626 -0.4159 -1.6436
1.2811 -0.4104 -1.5309
1.1385 -0.3577 -1.2791
1.3391 -0.3984 -1.4181
1.3133 -0.4017 -1.3850
1.3337 -0.3940 -1.3794
1.2542 -0.3908 -1.3130
1.3980 -0.3859 -1.3564
1.5434 -0.3916 -1.4536
1.2277 -0.3854 -1.1939
1.5938 -0.3904 -1.4612
1.4700 -0.3802 -1.3541
1.2240 -0.3926 -1.1728
1.4565 -0.3987 -1.2526
1.7101 -0.3920 -1.3969
1.4293 -0.3917 -1.2021
1.5162 -0.4010 -1.2310
1.2825 -0.3937 -1.6725
1.5170 -0.3838 -1.2583
1.3638 -0.3811 -1.8145
1.3826 -0.3761 -1.8179
1.0950 -0.4002 -1.4807
1.1748 -0.3848 -1.4116
1.3239 -0.4024 -1.5569
1.4224 -0.3739 -1.6122
1.2018 -0.3691 -1.3132
1.1889 -0.3932 -1.3102
1.5509 -0.3857 -1.5350
1.2443 -0.3970 -1.2959
1.2069 -0.3914 -1.2498
1.3094 -0.3897 -1.2388
1.3308 -0.3959 -1.1762
1.2912 -0.3947 -1.1660
1.4956 -0.3902 -1.2942
1.2277 -0.3923 -1.1125
1.4432 -0.3819 -1.2282
1.5842 -0.4057 -1.2819
1.5548 -0.3991 -1.2586
1.6509 -0.3928 -1.3013
1.5898 -0.3931 -1.2131
1.6303 -0.3566 -1.2126
1.1559 -0.3767 -1.4857
1.1461 -0.3909 -1.4694
1.1792 -0.3129 -1.4314
1.4602 -0.3584 -1.6097
1.1436 -0.3915 -1.2954
1.5173 -0.4118 -1.5965
1.4377 -0.3795 -1.3887
1.2111 -0.4100 -1.0989
1.5217 -0.3607 -1.3179
1.1671 -0.3915 -1.5449
1.4654 -0.3864 -1.7095
1.1982 -0.3902 -1.4017
1.1834 -0.3828 -1.3890
1.5814 -0.3877 -1.6104
1.1455 -0.3894 -1.2591
1.4858 -0.3772 -1.4485
1.5473 -0.3826 -1.4729
1.2390 -0.3928 -1.2381
1.7000 -0.3941 -1.4555
1.5974 -0.3756 -1.3675
1.5640 -0.3844 -1.2700
1.5237 -0.3857 -1.2250
1.5163 -0.3872 -1.1759
1.0970 -0.3999 -1.4262
1.1655 -0.4022 -1.1847
1.5893 -0.3982 -1.2568
1.6213 -0.3859 -1.2350
1.2304 -0.3923 -1.6319
1.1759 -0.3678 -1.5352
1.4503 -0.3620 -1.7477
1.3210 -0.3769 -1.6063
1.6109 -0.4085 -1.7427
1.5180 -0.3893 -1.1355
1.6370 -0.3857 -1.1821
1.5858 -0.3744 -1.5916
1.2869 -0.3943 -1.3797
1.3272 -0.3839 -1.3978
1.1513 -0.3198 -1.2732
1.6031 -0.3948 -1.5168
1.3308 -0.3945 -1.3357
1.5214 -0.3014 -1.4114
1.3176 -0.3775 -1.2983
1.1844 -0.3933 -1.2325
1.2903 -0.3954 -1.2217
1.4734 -0.3847 -1.2945
1.4688 -0.3805 -1.2638
1.6330 -0.3968 -1.3234
1.3562 -0.3779 -1.1871
1.6159 -0.3887 -1.2873
1.4348 -0.3692 -1.5244
1.1356 -0.3830 -1.5767
1.2101 -0.4032 -1.6326
1.3023 -0.3903 -1.2430
1.1393 -0.3985 -1.5196
1.2136 -0.3790 -1.2970
1.4296 -0.3851 -1.6847
1.5193 -0.3602 -1.8147
1.1082 -0.3705 -1.4654
1.5629 -0.4131 -1.7228
1.6207 -0.4115 -1.7100
1.2586 -0.3841 -1.4205
1.3086 -0.3812 -1.3470
1.7682 -0.3988 -1.2373
1.1893 -0.4077 -1.1587
1.1546 -0.4046 -1.2305
1.2372 -0.3773 -1.6267
1.2451 -0.3564 -1.5809
1.2717 -0.3861 -1.3797
1.5834 -0.3786 -1.1915
1.1948 -0.3640 -1.1137
1.0925 -0.3675 -1.4313
1.4694 -0.3690 -1.2971
1.3966 -0.3864 -1.3061
1.4152 -0.3839 -1.3123
1.1220 -0.3948 -1.3306
1.1017 -0.3926 -1.4088
1.5946 -0.3693 -1.6768
1.3757 -0.3866 -1.3572
1.4086 -0.3738 -1.6999
1.3523 -0.3744 -1.6720
1.6010 -0.3869 -1.1704
1.3678 -0.4031 -1.4608
1.3052 -0.3721 -1.4210
1.4203 -0.3846 -1.1631
1.4862 -0.3678 -1.4866
1.4892 -0.3780 -1.2028
1.3244 -0.3699 -1.1504
1.5647 -0.3863 -1.2297
1.2117 -0.3894 -1.3441
1.2816 -0.3996 -1.1859
1.1326 -0.3868 -1.4912
1.2047 -0.3945 -1.3188
1.3128 -0.3773 -1.5916
1.1846 -0.3851 -1.2018
1.3093 -0.3942 -1.2546
1.3475 -0.4048 -1.3461
1.3930 -0.3670 -1.3582
1.2553 -0.3813 -1.2877
1.4249 -0.3687 -1.6227
1.3945 -0.3820 -1.3668
1.0814 -0.3896 -1.5137
1.1939 -0.3982 -1.2549
1.3593 -0.3898 -1.3500
1.1415 -0.3833 -1.4907
1.3180 -0.3694 -1.5181
1.4219 -0.3852 -1.2508
1.1538 -0.4011 -1.2935
1.7017 -0.3826 -1.1908
1.4783 -0.3798 -1.5289
1.4746 -0.3983 -1.5913
1.4953 -0.3598 -1.4588
1.6186 -0.3750 -1.3563
1.6397 -0.3763 -1.5783
1.6235 -0.3771 -1.6230
1.7226 -0.3895 -1.3897
1.5947 -0.3838 -1.1340
1.7863 -0.3839 -1.1687
1.7261 -0.3861 -1.3522
1.6862 -0.4178 -1.5624
1.0887 -0.3809 -1.4662
1.2445 -0.3788 -1.5615
1.3352 -0.3593 -1.5755
1.3583 -0.3797 -1.5936
1.5790 -0.3868 -1.1548
1.3864 -0.3916 -1.4675
1.1859 -0.3788 -1.3747
1.1888 -0.3671 -1.1311
1.3510 -0.3718 -1.1715
1.3195 -0.3715 -1.3689
1.5158 -0.3663 -1.2345
1.4499 -0.3933 -1.2083
1.3504 -0.3848 -1.3042
1.4158 -0.3801 -1.3012
1.4656 -0.3687 -1.2535
1.3779 -0.3991 -1.2753
1.4323 -0.3758 -1.2724
1.2601 -0.3832 -1.2392
1.2897 -0.3813 -1.4691
1.1538 -0.3768 -1.4013
1.3340 -0.3798 -1.4442
1.3478 -0.3859 -1.4598
1.3380 -0.3854 -1.1762
1.1757 -0.3832 -1.2153
1.1660 -0.3493 -1.2000
1.2251 -0.3359 -1.1282
1.1663 -0.3885 -1.1869
1.4536 -0.3759 -1.4550
1.7990 -0.3880 -1.1602
1.1000 -0.3840 -1.3955
1.5310 -0.3769 -1.3298
1.2554 -0.3820 -1.5898
1.0480 -0.3616 -1.5855
1.2468 -0.3893 -1.6433
1.2660 -0.3681 -1.5186
1.2925 -0.3820 -1.6577
1.4021 -0.3665 -1.6820
1.5069 -0.3661 -1.5953
1.0709 -0.3727 -1.5398
1.5926 -0.3813 -1.1282
1.5669 -0.3804 -1.5242
1.4937 -0.4155 -1.1146
1.4580 -0.3636 -1.4535
1.1359 -0.3810 -1.3219
1.6081 -0.3838 -1.4188
1.4406 -0.3804 -1.3568
1.2224 -0.3486 -1.1409
1.3991 -0.3688 -1.2920
1.2736 -0.3564 -1.2525
1.3234 -0.3810 -1.2699
1.2588 -0.3805 -1.2668
1.4115 -0.3853 -1.2723
1.3876 -0.3791 -1.2218
1.2710 -0.3535 -1.5090
1.2596 -0.3872 -1.4186
1.4254 -0.3744 -1.4139
1.4702 -0.3587 -1.3747
1.2548 -0.3595 -1.3118
1.3194 -0.3487 -1.2579
1.6453 -0.4091 -1.2225
1.4661 -0.3650 -1.1988
1.6316 -0.4045 -1.1932
1.6419 -0.3884 -1.6185
1.1633 -0.3788 -1.1876
1.0857 -0.3794 -1.4689
1.0956 -0.3848 -1.4418
1.0642 -0.3613 -1.5324
1.0734 -0.3751 -1.5042
1.1016 -0.3865 -1.3916
1.0777 -0.3735 -1.4904
1.3012 -0.3708 -1.1489
1.1209 -0.3763 -1.3303
1.1458 -0.3897 -1.4114
1.1771 -0.3701 -1.5919
1.1979 -0.3693 -1.3883
1.4991 -0.3656 -1.1661
1.1702 -0.3997 -1.3380
1.1027 -0.3722 -1.2248
1.3213 -0.3775 -1.5503
1.0768 -0.3646 -1.5512
1.2753 -0.3534 -1.3312
1.2726 -0.3492 -1.5921
1.1801 -0.3973 -1.3970
1.4341 -0.2884 -1.5380
1.3558 -0.3488 -1.2287
1.3021 -0.3667 -1.4088
1.2071 -0.3631 -1.5950
1.4952 -0.4035 -1.2284
1.1597 -0.3887 -1.4764
1.1108 -0.4044 -1.4638
1.2221 -0.3421 -1.4509
1.4414 -0.3682 -1.3357
1.2977 -0.3972 -1.2399
1.2867 -0.3738 -1.6153
1.6355 -0.3645 -1.2003
1.2955 -0.3402 -1.6609
1.5121 -0.3783 -1.4483
1.6088 -0.3587 -1.2298
1.6324 -0.3723 -1.2922
1.3288 -0.3512 -1.5254
1.3790 -0.4178 -1.5203
1.6607 -0.4083 -1.3738
1.5582 -0.3876 -1.3726
1.0862 -0.3870 -1.4428
1.1694 -0.4057 -1.1723
1.0681 -0.3823 -1.5223
1.1529 -0.3914 -1.2336
1.3007 -0.3801 -1.1265
1.2824 -0.3623 -1.2162
1.2498 -0.3765 -1.3674
1.3259 -0.4448 -1.2317
1.2070 -0.3903 -1.2846
1.2895 -0.3689 -1.2941
1.1432 -0.3548 -1.2751
1.3478 -0.3580 -1.2856
1.3668 -0.3583 -1.2655
1.4744 -0.3699 -1.6259
1.1498 -0.3523 -1.2381
1.0741 -0.3509 -1.5332
1.1363 -0.4019 -1.5544
1.2181 -0.3659 -1.5305
1.2481 -0.3927 -1.5615
1.1640 -0.3715 -1.5187
1.3711 -0.3891 -1.4379
1.4727 -0.3554 -1.2248
1.1896 -0.3714 -1.3348
1.1461 -0.3828 -1.2910
1.3926 -0.3751 -1.2893
1.3471 -0.3960 -1.1656
1.3135 -0.3818 -1.5116
1.0833 -0.3699 -1.4739
1.5366 -0.3681 -1.2213
1.0978 -0.3588 -1.4063
1.0729 -0.3554 -1.5036
1.2720 -0.3749 -1.3602
1.1270 -0.3490 -1.3148
1.1032 -0.3748 -1.5144
1.1474 -0.3868 -1.4759
1.2788 -0.3815 -1.2356
1.2443 -0.3665 -1.2423
1.2083 -0.3749 -1.3057
1.1856 -0.3642 -1.2970
1.2100 -0.3751 -1.2084
1.4352 -0.3829 -1.6136
1.3309 -0.3776 -1.2126
1.3225 -0.3706 -1.1700
1.3404 -0.3220 -1.3411
1.3937 -0.3715 -1.3923
1.3659 -0.3739 -1.2940
1.3171 -0.3900 -1.5419
1.3249 -0.3464 -1.5281
1.1179 -0.3876 -1.5231
1.2846 -0.3845 -1.3655
1.2590 -0.3698 -1.2429
1.1566 -0.4031 -1.4869
1.3711 -0.3717 -1.3398
1.3618 -0.3574 -1.3575
1.2567 -0.3528 -1.2369
1.1063 -0.3769 -1.3752
1.2457 -0.3830 -1.6111
1.1177 -0.3595 -1.5293
1.2778 -0.3716 -1.2539
1.2569 -0.3827 -1.2817
1.3268 -0.3723 -1.6102
1.3971 -0.3546 -1.5090
1.1652 -0.3695 -1.1732
1.3599 -0.3803 -1.1763
1.3678 -0.3765 -1.1555
1.4654 -0.3766 -1.5635
1.3200 -0.3770 -1.2167
1.2716 -0.3742 -1.5091
1.3122 -0.3265 -1.3741
1.1383 -0.3906 -1.4179
1.1378 -0.3984 -1.4808
1.1857 -0.3327 -1.5297
1.1648 -0.3790 -1.5677
1.1499 -0.3848 -1.2372
1.3235 -0.3778 -1.5368
1.4610 -0.3681 -1.7311
1.5843 -0.3503 -1.6459
1.3150 -0.3878 -1.6143
1.4372 -0.3699 -1.6194
1.2884 -0.3885 -1.5945
1.3588 -0.3676 -1.5090
1.0977 -0.3200 -1.4261

