0.0915 -0.9883 0.8831
-0.1227 -1.1380 0.4907
0.2086 -1.2145 0.8157
-0.1383 -1.1883 0.3721
-0.5903 -1.0711 -0.2158
-0.0876 -1.1606 0.0315
0.3330 -1.1304 0.9226
0.2299 -1.1924 0.8304
-0.0438 -1.1741 0.4387
-0.1475 -1.2091 -0.1421
-0.5354 -1.1703 0.0022
0.2622 -1.2187 0.4395
-0.3047 -1.1907 0.3559
-0.6102 -1.2011 -0.1786
-0.2473 -1.0852 0.0665
-0.1180 -1.1571 0.1811
0.2242 -1.1611 0.5958
-0.4082 -0.8844 0.1517
-0.6941 -1.1701 -0.1902
0.2586 -1.0226 0.9288
0.3848 -1.0458 0.9277
-0.0642 -1.1710 0.4229
-0.1454 -1.1285 -0.0417
0.5044 -1.2723 0.7528
0.1262 -1.1861 0.6504
-0.0497 -1.1264 0.5225
-0.1173 -1.1504 0.1452
-0.0241 -1.2547 0.4104
-0.1719 -1.1833 -0.2115
-0.2804 -1.2429 0.1515
-0.0888 -1.1629 0.5958
-0.1824 -1.1761 0.3954
-0.3782 -1.2345 0.0219
0.1101 -1.0050 0.9928
0.3331 -0.9823 0.9194
-0.4511 -1.0596 0.1856
0.4333 -1.0141 0.9175
-0.0779 -0.8464 0.5038
-0.2586 -1.2103 -0.1213
-0.2007 -1.1851 0.2404
-0.2043 -1.1775 0.2640
0.2187 -1.2192 -0.0309
-0.1358 -1.2166 -0.0148
-0.0051 -1.1458 0.6043
-0.2213 -1.1830 0.3042
0.0303 -0.9939 0.4962
-0.2548 -1.0607 0.0362
-0.4520 -1.1796 -0.2486
0.0983 -1.1520 0.5917
0.1200 -1.1965 0.6883
-0.3637 -1.0813 -0.2150
0.1943 -1.3360 0.2781
0.2212 -1.1827 0.4781
-0.3059 -0.9921 -0.0497
0.2219 -0.5999 0.3012
-0.0163 -1.2750 -0.2062
-0.1583 -1.1694 0.3698
-0.0934 -1.0945 0.5063
0.1963 -1.1865 0.3961
-0.2365 -1.1391 0.0721
-0.3806 -1.3275 -0.1417
-0.1365 -1.2004 -0.0624
0.0445 -1.2326 0.1965
0.1662 -0.9149 0.0897
-0.3269 -1.1417 -0.1907
0.1946 -1.2444 0.1529
0.0715 -1.1965 0.5650
0.4441 -1.3491 0.9470
0.3792 -1.1289 0.8359
-0.2038 -0.4874 0.5350
0.2162 -1.1714 -0.1135
0.3482 -1.1498 0.8131
0.2749 -1.2092 0.5691
0.2766 -1.0823 0.3183
0.3957 -1.0027 0.9107
0.1316 -0.9895 0.9244
0.0254 -1.2098 0.8887
-0.5105 -1.1746 -0.0867
-0.5576 -1.1106 -0.1261
-0.2860 -0.5064 0.4398
-0.0389 -1.2106 -0.1612
-0.2591 -0.4817 0.4749
0.3968 -0.8943 0.9042
-0.2809 -0.4722 0.3366
-0.2603 -0.4832 0.6018
-0.2635 -0.5020 0.6027
-0.2412 -0.5013 0.5876
0.3808 -0.9285 0.9359
-0.3465 -1.1282 -0.0311
-0.3051 -1.1799 0.0062
0.3122 -1.0053 0.9390
0.0546 -1.1831 0.5802
0.2814 -1.0182 0.9386
0.1899 -0.9134 1.0048
0.2203 -1.0357 0.9612
0.1061 -1.2236 0.0149
0.1445 -1.1528 0.2527
0.1864 -1.1382 0.4049
-0.6448 -1.4455 -0.1868
-0.2154 -0.5059 0.5726
0.0791 -1.1532 0.5181
0.2918 -1.0870 0.4084
-0.1088 -1.2757 0.1989
0.1611 -0.7109 0.3226
0.0930 -0.9921 0.1634
0.3756 -1.3049 0.8123
0.2352 -1.1162 0.7235
0.2065 -1.2059 0.9343
0.0342 -0.5742 0.4202
0.2981 -1.0323 0.4223
0.3551 -0.9983 0.9099
-0.4098 -0.9942 0.0657
-0.4542 -1.1201 -0.1166
-0.2620 -1.1458 0.2390
0.3358 -1.6255 0.2503
-0.0038 -1.0695 0.2090
0.0048 -1.1319 0.4277
0.3777 -1.0783 0.6311
-0.1213 -1.0501 0.5099
-0.1343 -1.2035 0.1260
0.0539 -0.8855 0.2500
0.3194 -1.1774 0.8236
0.2666 -1.0044 0.3109
0.3107 -0.8993 0.8762
0.2821 -0.9918 0.8732
0.2320 -1.1095 0.7331
0.2489 -1.0028 0.9878
0.2157 -1.1364 0.6855
0.1851 -0.8966 0.9330
-0.1021 -1.1108 0.2978
-0.2110 -1.1294 0.0559
-0.3498 -1.2683 -0.0632
-0.1687 -0.4746 0.5357
-0.5006 -1.2787 -0.0246
-0.0955 -1.1382 0.2133
0.3388 -0.7031 0.8333
-0.2952 -1.1474 0.3461
-0.1667 -0.5033 0.5639
0.1899 -0.6485 0.8392
-0.3155 -0.4720 0.6176
0.3669 -0.9053 0.8640
-0.2972 -1.1562 0.3459
0.2958 -0.6829 0.8513
0.1555 -0.9864 0.9515
0.2688 -0.6987 0.8730
0.2107 -0.7118 0.9040
0.2845 -1.0532 -0.0142
0.1996 -1.1307 0.3024
0.1237 -0.7025 0.2326
0.2518 -1.0810 0.2605
0.2112 -1.0819 0.7338
0.2988 -1.1794 0.3835
0.1629 -1.0624 0.7423
0.1096 -1.0793 0.6290
0.1006 -1.1559 0.5925
0.0411 -1.0976 0.1775
0.0247 -1.1051 -0.0162
0.3162 -1.1789 0.2483
-0.2078 -1.1380 0.3728
-0.1037 -1.1627 0.0309
0.3269 -0.9108 0.5597
-0.0686 -1.0833 0.5454
-0.0723 -1.1970 0.4833
-0.3245 -0.4925 0.5066
-0.3430 -0.4896 0.6664
0.1842 -1.0930 0.3710
-0.2192 -0.8368 0.1378
0.0915 -1.1240 0.3997
0.3116 -1.2666 0.0267
0.2753 -0.7807 0.9190
0.2471 -0.7880 0.9252
0.1998 -0.7952 0.9290
0.0290 -0.9705 0.5672
-0.2432 -1.0773 0.3751
-0.2797 -0.5304 0.4360
-0.3074 -0.4913 0.5360
-0.3887 -0.9980 0.1458
-0.4269 -1.0018 0.1854
-0.1771 -0.5192 0.5678
-0.3121 -0.4577 0.6151
-0.4286 -1.0279 0.1721
-0.1628 -0.4849 0.5298
0.1055 -1.0529 0.0119
0.1674 -0.9219 0.9050
0.2092 -0.8717 0.9579
0.2259 -1.1038 0.1380
0.3148 -1.1178 -0.0307
0.1775 -1.1114 -0.0298
-0.2174 -0.3522 0.4142
0.2752 -1.1411 0.2888
0.1833 -1.0464 0.3091
-0.3544 -1.0068 0.0006
0.1375 -1.1891 0.3939
0.1552 -1.1867 0.9195
0.1082 -1.1325 0.1798
0.0947 -1.1461 0.3248
0.0588 -1.1783 0.2265
0.0389 -0.6957 0.0516
0.0330 -0.7971 0.0458
-0.2585 -1.0675 0.0618
0.2751 -1.1216 0.1104
-0.0983 -1.2229 0.1030
-0.0732 -1.0836 0.1436
0.2118 -0.6856 0.2044
0.1801 -0.8746 0.1153
0.1820 -1.2003 0.1425
0.0200 -1.2043 0.8753
-0.2209 -0.4897 0.7619
-0.1552 -0.2989 0.5147
-0.3212 -0.4872 0.6577
0.2222 -0.8898 0.9336
0.1249 -1.0915 -0.0595
0.0735 -0.6080 0.4222
0.1477 -0.3910 0.3425
-0.3171 -0.5797 0.8710
0.1792 -0.4263 0.5571
0.2184 -1.2291 0.4234
0.2401 -1.3052 0.8312
-0.1832 -1.1723 0.3542
0.0172 -0.2413 0.3031
-0.2862 -1.1427 0.0992
-0.2822 -1.1489 0.0562
-0.2889 -1.0598 0.0144
-0.0576 -0.2837 0.2182
-0.4438 -1.1273 0.1595
-0.0560 -0.2745 0.2133
-0.5720 -1.2235 -0.0186
-0.4753 -1.0430 -0.0497
-0.1790 -0.4501 0.1574
-0.3369 -0.5075 0.6772
0.1430 -0.3681 0.5076
0.3005 -1.2580 0.6457
0.2535 -0.9120 0.9859
0.1530 -1.1567 0.9003
0.1307 -0.9406 0.8895
-0.0781 -0.4545 0.2427
-0.2277 -0.5027 0.7734
-0.3324 -0.5509 0.8463
-0.3103 -0.4872 0.7370
0.1632 -1.0215 0.1647
0.2632 -1.2737 0.4267
0.2590 -1.2407 0.8434
-0.1019 -0.5059 0.8215
-0.4537 -1.1176 0.0096
-0.3206 -0.5446 0.7545
-0.3614 -0.5127 0.8270
0.3081 -1.4315 0.0882
0.2298 -1.3879 0.1063
-0.2883 -0.5065 0.7628
0.3083 -0.9887 1.1043
0.1388 -1.0761 0.7071
0.1300 -1.1624 0.6895
-0.2244 -1.4774 0.3010
-0.2021 -0.5345 0.9259
-0.2156 -0.5270 0.9217
-0.2506 -0.5271 0.9116
-0.2442 -0.5376 0.8308
-0.2835 -0.5369 0.9547
-0.2617 -0.5194 0.7958
-0.2425 -0.5184 0.6222
-0.2710 -0.5172 0.6400
-0.2493 -0.5255 0.9055
-0.2570 -0.5002 0.9402
-0.3456 -0.6086 0.8814
-0.3254 -0.5188 0.9501
-0.0854 -0.4988 0.6564
0.3300 -1.0993 0.6838
0.2960 -0.9942 1.0165
0.1725 -1.2992 0.2364
-0.2053 -0.6332 1.1213
0.3273 -0.9147 1.0564
0.2172 -0.5226 0.8384
0.3386 -1.1215 0.9323
0.0620 -0.5662 1.0715
0.0097 -1.2992 0.3028
0.1968 -1.1872 0.8193
0.0317 -1.1049 -0.0335
-0.0497 -0.9758 -0.1211
-0.1868 -1.4209 0.3634
-0.0247 -0.5955 -0.0233
0.5153 -1.0936 1.1903
0.5486 -1.2321 1.1933
0.5504 -1.2721 1.1747
0.4570 -1.0766 0.9993
0.5573 -1.4349 1.1889
0.4920 -1.2288 1.0272
0.4302 -1.0734 1.2116
0.4494 -1.2401 1.0175
0.0388 -1.3453 0.3411
0.5506 -1.1032 1.1915
0.4334 -1.0186 1.1719
0.4764 -1.2382 0.9896
0.3937 -0.9780 1.0521
0.4052 -1.1803 0.9789
0.3205 -1.3157 0.7063
0.1182 -0.3799 0.3145
0.2446 -1.1338 0.2374
0.8142 -1.1797 1.4956
0.7053 -1.2669 0.5417
0.7634 -1.1850 1.2754
0.6242 -1.1188 0.5223
0.7037 -1.3068 0.5786
0.7814 -1.2982 1.2137
0.7688 -1.2767 1.1720
0.6553 -1.1716 0.7037
0.7447 -1.1619 1.4173
0.6474 -0.9833 1.3179
0.4966 -0.9006 0.4806
0.7802 -1.3530 1.2722
0.5792 -1.1116 0.5455
0.6619 -1.3920 0.5947
0.5239 -1.0496 0.5896
0.5696 -1.1594 0.6796
0.5698 -1.0270 1.1736
0.4511 -1.0667 0.6944
0.3894 -0.9242 0.4782
0.3817 -0.9677 0.5703
0.4964 -1.2855 1.0181
0.3031 -0.5295 1.2562
0.3863 -1.0748 0.6189
0.4154 -1.3651 0.4438
0.3294 -1.0083 0.5120
0.2515 -0.5742 0.9112
0.2647 -1.2495 0.8490
0.2177 -1.1430 0.8425
0.1321 -1.1708 0.7040
-0.1371 -0.6524 1.2514
-0.0381 -0.3677 0.9603
0.5167 -0.8411 0.8265
0.5731 -1.0994 1.2441
0.2453 -0.7038 0.9315
0.5943 -1.1422 0.5442
0.6378 -1.2674 0.6209
0.4604 -0.5731 1.4058
0.5072 -1.2102 0.8269
0.5283 -1.2548 1.1656
0.3566 -0.5602 1.4648
0.4922 -1.3706 0.6022
0.3415 -0.5923 1.3827
0.4484 -1.0779 1.0970
0.3038 -0.4867 1.2297
0.3912 -0.8965 1.0711
0.4899 -1.3104 1.0286
0.4321 -1.1284 1.1257
0.3168 -0.6109 1.5443
0.2752 -0.5437 1.2791
0.2607 -0.5317 1.4583
0.2313 -0.4911 1.2119
0.2140 -0.5648 1.3572
0.2146 -0.5615 1.3299
0.1725 -0.5362 1.3891
0.1428 -0.5823 1.5211
0.0501 -1.1558 0.5750
-0.1393 -0.5631 0.8793
0.5488 -1.2658 0.8464
0.5680 -1.1807 1.1870
0.2791 -0.5463 1.3721
-0.0880 -0.5252 1.1235
-0.1365 -0.6095 0.8988
-0.1385 -0.2930 0.5107
0.1031 -0.2765 0.2603
0.3399 -0.7190 1.4397
0.2872 -0.5849 1.5033
0.2633 -0.5751 1.4728
0.2487 -0.5679 1.3856
0.2430 -0.5951 1.5336
0.2242 -0.5505 1.4994
0.1943 -0.5657 1.5110
0.1324 -0.5379 1.4871
0.3009 -0.5642 1.4399
0.0626 -0.4820 1.0325
-0.1291 -0.5305 0.8725
0.0585 -0.5460 1.5367
-0.2128 -0.5099 0.8819
-0.1116 -0.4921 1.0430
-0.2169 -0.5244 0.8794
-0.2388 -0.5178 0.8809
-0.3594 -0.6094 1.0709
-0.2759 -0.5474 0.8467
-0.4356 -0.5473 1.0203
-0.0351 -0.5412 0.8066
-0.3671 -0.5083 1.0015
-0.3006 -0.3986 0.9202
-0.2409 -0.4936 0.7810
-0.4264 -0.5387 1.0492
-0.3066 -0.4259 0.9291
-0.2415 -0.4937 0.8615
-0.0569 -0.4922 0.7857
-0.2636 -0.5160 0.9149
-0.6151 -0.6009 1.1271
-0.4310 -0.4930 0.8477
-0.1740 -0.5093 0.5703
-0.1811 -0.5042 0.5638
-0.2351 -0.4969 0.8889
-0.3254 -0.5605 0.9621
-0.3861 -0.4973 0.9954
-0.1682 -0.5079 0.5729
-0.3085 -0.5290 0.6832
-0.1093 -0.1580 0.8671
-0.1713 -0.4994 0.9707
-0.1832 -0.4753 0.9450
-0.1964 -0.4988 0.8801
-0.2709 -0.4681 0.9219
-0.2639 -0.4958 0.8601
-0.1617 -0.0998 0.7406
-0.2003 -0.1698 0.7272
-0.0545 -0.4902 0.7871
-0.1284 -0.5160 0.8388
-0.1507 -0.4916 0.8618
-0.2179 -0.5054 0.8880
-0.1141 -0.4412 1.0802
-0.2340 -0.4978 0.9145
-0.3153 -0.4825 0.8143
-0.1810 -0.5408 1.0649
-0.1649 -0.4257 0.9604
-0.0472 -0.5100 0.7940
-0.1992 -0.5170 0.9519
-0.2145 -0.5082 0.9560
-0.2593 -0.5116 0.9585
-0.2557 -0.4983 0.9242
-0.2569 -0.5101 0.9150
-0.3206 -0.5188 0.9557
-0.2987 -0.4804 0.9340
-0.3744 -0.5281 1.0091
-0.3783 -0.5360 0.9787
-0.3853 -0.4661 0.9741
-0.2554 -0.5186 0.7761
-0.4376 -0.4393 0.9095
-0.3711 -0.5339 0.8342
-0.3967 -0.5617 0.7358
-0.3780 -0.5315 0.7443
-0.5187 -0.5453 0.7810
-0.3560 -0.5437 0.6642
-0.3685 -0.5259 0.6760
-0.3348 -0.4708 0.6613
-0.3162 -0.5993 0.9625
-0.3373 -0.5860 0.9207
-0.3133 -0.4956 0.8459
-0.1238 -0.1028 0.7979
-0.4337 -0.5236 1.2995
-0.0767 0.0496 0.8059
-0.1159 0.0283 0.7874
-0.0714 -0.0397 0.7253
-0.0824 -0.0230 0.8314
-0.0884 0.0468 0.7788
-0.1205 0.0285 0.7838
-0.2629 -0.5682 1.0887
-0.3818 -0.4845 0.9755
-0.4813 -0.5187 0.7520
-0.0429 -0.5057 0.7978
-0.2001 -0.4793 0.8944
-0.1560 -0.5349 0.8665
-0.1947 -0.5225 1.0845
-0.4520 -0.4835 1.0256
-0.2669 -0.4387 0.8918
-0.3760 -0.4999 0.8575
-0.1925 -0.4833 0.9719
-0.4865 -0.4948 1.0627
-0.5520 -0.5194 1.0836
-0.1575 -0.5102 0.9086
-0.4707 -0.4707 1.0236
-0.3238 -0.4630 0.6730
-0.4364 -0.5136 1.0308
-0.3016 -0.5416 0.9196
-0.3658 -0.5272 0.8127
-0.2574 -0.5032 0.9114
-0.2095 -0.5148 0.8855
-0.1057 -0.4935 0.5795
-0.1763 -0.5175 1.0029
-0.3381 -0.5141 0.6633
-0.4382 -0.5028 1.0251
-0.1719 -0.4837 1.0369
-0.2396 -0.4991 1.0431
-0.1591 -0.4995 0.9268
-0.2693 -0.5240 0.9696
-0.2707 -0.5394 0.8402
-0.5811 -0.5232 0.8030
-0.6287 -0.5283 0.8169
-0.4246 -0.4882 0.7101
-0.1776 -0.4815 1.0509
-0.4262 -0.4853 0.6924
-0.2870 -0.5284 0.6278
-0.1755 -0.5514 0.5607
-0.3240 -0.5256 1.1456
-0.4444 -0.4837 0.7157
-0.4302 -0.5446 0.7571
-0.3051 -0.4752 0.5936
-0.4402 -0.5222 1.0673
-0.2441 -0.5235 0.5489
-0.2682 -0.5131 0.9266
-0.1686 -0.5069 0.9599
-0.1993 -0.5273 0.8888
-0.2453 -0.5047 0.7820
-0.2300 -0.5199 0.8755
-0.2730 -0.2224 0.8620
-0.1410 -0.0857 0.7694
-0.2811 -0.1534 0.7392
-0.2745 -0.4749 0.9623
-0.1631 -0.5689 1.0148
-0.6116 -0.4678 0.7257
-0.4004 -0.5214 0.5800
-0.4870 -0.4719 0.7688
-0.2113 -0.5103 1.0466
-0.2663 -0.5333 1.0382
-0.3315 -0.5103 0.9849
-0.3010 -0.5354 0.8153
-0.0403 -0.5214 0.7921
-0.3390 -0.5293 0.6857
-0.3143 -0.5235 0.9771
-0.5586 -0.5568 0.7207
-0.5746 -0.4968 0.7911
-0.4487 -0.5095 0.6924
-0.5455 -0.5258 1.0788
-0.4243 -0.4756 0.7220
-0.5192 -0.5069 0.7559
-0.2571 -0.5055 0.9971
-0.2558 -0.5470 0.9788
-0.2740 -0.5049 0.9315
-0.3601 -0.5261 0.7311
-0.2304 -0.5303 0.9111
-0.5612 -0.4439 0.7880
-0.6336 -0.4522 0.6842
-0.6017 -0.5488 0.8487
-0.4153 -0.5463 0.8190
-0.3227 -0.5188 1.1594
-0.2716 -0.5118 0.9799
-0.2543 -0.5398 0.9544
-0.2840 -0.5370 0.8461
-0.3713 -0.5190 0.7200
-0.4090 -0.5565 0.6562
-0.3214 -0.5239 0.6150
-0.2966 -0.5308 0.5925
-0.2771 -0.5373 0.7868
-0.0373 -0.5378 0.7951
-0.2394 -0.5057 0.9194
-0.0891 -0.5121 0.8634
-0.2715 -0.5212 0.9754
-0.2772 -0.5249 0.9498
-0.1835 -0.5081 0.9408
-0.5128 -0.5236 0.6675
-0.5271 -0.4986 1.0884
-0.5226 -0.5582 0.7797
-0.1528 -0.4658 0.9836
-0.1666 -0.4834 0.9751
-0.2425 -0.5126 1.0158
-0.1454 -0.4801 0.9221
-0.2378 -0.5375 0.9551
-0.2476 -0.5158 0.9336
-0.2977 -0.5127 0.9482
-0.2356 -0.4976 0.8967
-0.2489 -0.4850 0.8594
-0.3022 -0.4618 0.9225
-0.1974 -0.1393 0.8282
-0.3532 -0.5382 0.6497
0.0271 -0.5285 0.8205
-0.1111 -0.4965 0.8442
-0.1973 -0.5114 0.8876
-0.2116 -0.4986 0.8772
-0.1902 -0.4413 0.6747
-0.1695 -0.4914 0.8761
-0.5876 -0.5270 0.8183
-0.4455 -0.5112 0.6765
-0.2842 -0.4705 0.9124
-0.4397 -0.5370 0.8635
-0.4041 -0.5519 0.8282
-0.3082 -0.5370 0.7438
-0.4194 -0.5119 0.7653
-0.2865 -0.4888 0.6668
-0.3832 -0.5184 0.9941
-0.2544 -0.5099 0.9283
-0.2657 -0.5567 1.0534
-0.2273 -0.5308 0.9243
-0.2443 -0.4811 1.1002
-0.3406 -0.5422 0.6855
-0.2621 -0.4920 0.9146
-0.2676 -0.4884 0.9376
-0.2704 -0.4760 0.9035
-0.1999 -0.5181 0.8934
-0.3622 -0.5293 0.8356
-0.2116 -0.2872 0.7592
-0.1645 -0.5364 1.0678
-0.2488 -0.5258 1.0380
-0.2380 -0.5212 0.9724
-0.1401 -0.5496 1.0722
-0.4381 -0.4622 0.9199
-0.3380 -0.4904 0.6832

