0.1448 -1.2402 0.8359
0.2878 -0.4465 0.5350
0.0623 -0.0444 0.3108
0.5774 -0.8158 0.4223
0.3892 -0.8643 0.5808
0.2831 -0.4630 0.5349
0.0038 0.0021 0.3353
0.1935 -0.9675 0.2335
0.1516 -0.0053 0.6176
-0.0539 0.0030 0.5794
0.0200 -0.0040 0.6570
-0.0401 0.0045 0.6251
0.0303 0.0006 0.6330
0.1253 -0.0080 0.4295
0.0455 0.0015 0.5974
-0.0140 0.0057 0.5674
0.1298 0.0037 0.5739
-0.1155 0.0072 0.5544
0.0035 0.0021 0.6120
0.1340 0.0020 0.4710
-0.1024 0.0064 0.5894
0.0595 0.0024 0.6385
0.0842 0.0037 0.5809
0.0806 -0.0004 0.6917
-0.2942 0.0073 0.5262
-0.2537 0.0017 0.5478
-0.2459 0.0029 0.5475
-0.1727 0.0056 0.5846
-0.2289 0.0056 0.5460
0.0424 0.0028 0.3512
-0.2551 -0.0014 0.5256
-0.2825 -0.0003 0.5043
-0.2446 0.0036 0.5017
-0.2403 0.0038 0.4922
-0.0882 0.0004 0.5683
-0.2378 0.0008 0.4877
-0.1523 0.0005 0.5284
-0.1122 0.0045 0.5500
-0.2353 -0.0043 0.4836
-0.2333 -0.0003 0.4777
-0.2308 -0.0026 0.4739
-0.1219 0.0005 0.4776
-0.2245 0.0050 0.4207
-0.1113 0.0007 0.4704
0.0305 0.0043 0.6249
-0.0845 0.0017 0.5768
-0.2440 0.0074 0.5409
0.0135 0.0048 0.3061
-0.2893 0.0086 0.5162
-0.2913 0.0095 0.5206
0.1137 0.0070 0.5998
-0.1108 0.0100 0.6181
-0.2272 0.0043 0.4914
-0.0403 0.0026 0.5558
-0.2334 -0.0014 0.4164
-0.1588 -0.0008 0.4519
-0.2321 0.0001 0.4903
-0.0111 0.0021 0.3942
-0.2523 0.0015 0.5047
0.1883 -0.0097 0.5275
-0.2390 -0.0059 0.3885
0.2151 -0.0144 0.5769
0.0560 0.0010 0.5115
0.1686 -0.0025 0.6632
0.1372 0.0030 0.7190
0.0823 -0.0076 0.6902
0.0383 0.0062 0.2489
-0.0600 0.0080 0.2461
0.0338 0.0110 0.2800
0.0813 0.0232 0.3102
-0.2087 0.0025 0.3219
-0.2097 0.0076 0.3455
-0.0884 0.0105 0.3993
-0.1339 0.0085 0.4128
-0.2230 -0.0039 0.3836
-0.0775 0.0073 0.4360
-0.1684 0.0072 0.4152
0.0159 0.0003 0.4904
-0.0729 0.0124 0.4568
0.0773 0.0003 0.5186
-0.2446 0.0013 0.4022
-0.2404 0.0018 0.4125
-0.1799 0.0078 0.4421
-0.2341 0.0112 0.4243
0.0964 0.0046 0.5529
-0.0552 0.0024 0.5133
-0.2423 0.0089 0.4424
-0.2541 0.0008 0.4430
-0.0849 -0.0011 0.5622
-0.2650 0.0016 0.4814
-0.2790 -0.0027 0.4768
-0.0835 0.0019 0.5707
-0.2759 -0.0028 0.4897
-0.2669 0.0124 0.4969
-0.2614 0.0068 0.5021
-0.2424 -0.0061 0.5168
-0.2974 0.0001 0.5152
-0.2898 -0.0070 0.5344
-0.0430 0.0051 0.4853
0.0535 0.0144 0.3965
-0.0485 0.0062 0.4484
-0.0737 0.0097 0.4624
-0.1335 0.0143 0.5152
0.0687 -0.0039 0.2495
-0.2266 0.0005 0.3653
-0.0063 0.0263 0.5074
0.0708 0.0152 0.5767
0.0564 -0.0131 0.6073
0.0190 0.0488 0.6086
0.1360 -0.0109 0.6803
0.0104 -0.0063 0.6134
-0.0456 -0.0108 0.5880
0.1727 -0.0364 0.2671
-0.0777 0.0040 0.1971
-0.1243 -0.0010 0.3135
-0.0067 -0.0016 0.3647
-0.1904 0.0105 0.3889
-0.2091 0.0014 0.4277
-0.2499 0.0084 0.4179
-0.2844 0.0026 0.5024
-0.1366 -0.0002 0.3427
-0.0789 -0.0012 0.4526
-0.0742 0.0022 0.5402
-0.1035 0.0046 0.5951
-0.0533 0.0016 0.5840
-0.0404 0.0016 0.6274
-0.1698 -0.0036 0.4274
-0.1190 0.0054 0.5513
-0.0991 0.0113 0.1611
-0.1424 0.0095 0.2045
-0.1903 0.0111 0.3226
0.0092 -0.0185 0.5866
-0.0658 0.0080 0.4110
-0.1499 0.0024 0.4586
-0.0378 0.0166 0.5216
-0.2487 0.0119 0.4418
-0.0669 -0.0085 0.5441
0.0491 0.0169 0.2402
0.4125 -0.3444 0.1456
0.3662 -0.3496 0.1198
0.2023 -0.0221 0.3090
0.0220 -0.0068 0.4191
0.0921 0.0103 0.6233
-0.0261 0.0083 0.2250
-0.1168 -0.0012 0.2122
-0.2516 -0.0033 0.3022
-0.0740 0.0010 0.4369
-0.2564 0.0039 0.4477
-0.2618 -0.0091 0.4450
-0.2312 -0.0063 0.4791
-0.2082 0.0005 0.4648
-0.0773 -0.0024 0.3676
-0.2009 0.0030 0.4865
-0.1769 0.0035 0.4353
-0.1891 -0.0030 0.4667
-0.1850 0.0210 0.4388
-0.1834 -0.0027 0.4391
-0.3059 0.4224 0.3693
-0.1651 0.0006 0.2611
-0.0463 -0.0197 0.4163
-0.0674 -0.0654 0.4266
-0.2286 0.0134 0.3819
-0.2932 0.0053 0.4941
-0.1358 -0.0039 0.5011
-0.3017 0.0277 0.4895
0.1935 -0.0139 0.7130
-0.1430 -0.0261 0.2047
-0.0366 -0.0112 0.2784
-0.1211 -0.0186 0.4134
-0.3321 0.3784 0.4042
-0.3484 0.3020 0.4273
-0.2947 0.0399 0.5263
-0.1982 -0.0290 0.4306
-0.1822 -0.0374 0.5580
-0.0375 -0.0062 0.1743
0.0236 -0.0098 0.2234
-0.0500 -0.0100 0.3054
-0.1757 -0.0287 0.2807
0.0008 -0.0022 0.3300
-0.1220 0.0025 0.3808
-0.2628 0.3497 0.4194
-0.2435 -0.0094 0.4447
0.1183 -0.0042 0.2781
0.0993 -0.0289 0.4501
0.1798 -0.0238 0.3103
0.2858 -0.0582 0.3452
-0.0552 -0.0065 0.3601
0.0803 -0.0373 0.4330
-0.0795 -0.0077 0.4129
0.1987 -0.0369 0.5275
0.1080 0.0019 0.5348
0.1538 -0.0140 0.5621
-0.1911 0.2196 0.4494
0.1366 -0.0120 0.5780
-0.0445 -0.0041 0.5343
-0.0896 -0.0037 0.5447
-0.3229 0.3551 0.4408
-0.3219 0.3218 0.4224
0.0846 -0.0216 0.2494
-0.0829 -0.0244 0.3260
-0.0289 -0.0157 0.3494
-0.1912 -0.0002 0.3178
0.0855 -0.0261 0.3975
0.1419 -0.0211 0.4258
-0.1295 -0.0320 0.4683
0.0983 -0.0112 0.5886
-0.0658 -0.0161 0.5474
0.0469 -0.0917 0.4361
-0.6377 -0.7430 0.5243
-0.6620 -0.8379 0.5673
-0.6824 -0.8182 0.5805
-0.2375 0.0128 0.4614
0.0074 -0.0192 0.5789
-0.2784 -0.0034 0.5117
-0.0275 -0.0118 0.6347
-0.0120 0.0291 0.6359
-0.0380 0.0166 0.6597
-0.1287 -0.0023 0.6546
-0.0719 0.0076 0.6818
-0.3387 0.0072 0.6212
-0.2473 -0.0045 0.4292
-0.8752 -1.2783 0.6469
-0.9159 -0.4534 0.2849
-1.0733 -0.4864 0.2059
-1.0669 -0.5039 0.2006
-1.2387 -0.6239 0.2191
-1.0628 -0.1122 0.2547
-0.5753 -0.4861 0.9518
-0.6209 -0.1994 0.7301
-0.7650 -0.6755 1.0702
-1.1532 -0.5330 0.2431
-0.5503 -0.5403 0.9501
-0.5242 -0.4982 0.4153
-0.9982 -0.2058 0.2475
-1.1631 -0.7538 0.1283
-0.9425 -0.1666 0.2790
-0.9706 -0.6755 0.2930
-0.9735 -0.6450 0.4482
-0.6583 -0.6500 0.9133
-1.2078 -0.6569 0.8641
-1.0941 -0.6121 0.9564
-1.0154 -0.6494 1.0158
-0.8677 -0.5342 0.9843
-1.0996 -0.4828 0.9132
-0.7069 -0.7032 0.1834
-0.9594 -0.6248 0.2811
-0.6096 -0.4695 0.9836
-0.3690 -0.6672 0.1555
-0.3570 -0.6656 0.1757
-0.9000 -0.6154 0.2693
-1.1352 -0.7127 0.2456
-0.4916 -0.6439 0.3635
-0.7819 -0.6542 0.6276
-1.2245 -0.7297 0.5504
-1.1843 -0.6672 0.5290
-1.2007 -0.6995 0.5023
-1.1539 -0.6666 0.4563
-1.1741 -0.6818 0.4521
-1.2145 -0.6830 0.8358
-0.5909 -0.6381 0.4217
-1.1563 -0.6979 0.8117
-0.9930 -0.6569 0.3421
-0.2771 -0.6813 0.1455
-1.1281 -0.6774 0.3036
-0.2928 -0.6770 0.1508
-0.4681 -0.5926 0.1989
-0.9172 -0.5862 0.1660
-1.1042 -0.7019 0.3241
-1.0446 -0.6692 0.5869
-1.2920 -0.6351 0.3413
-0.6581 -0.6875 0.0430
-0.8701 -0.6349 0.3570
-0.4679 -0.6661 0.4176
-0.9050 -0.6462 0.4005
-1.0609 -0.6555 0.5971
-0.5620 -0.6717 0.7262
-1.0401 -0.6654 0.7160
-1.1230 -0.6981 0.7396
-1.2616 -0.6816 0.7804
-1.1463 -0.6378 0.3142
-0.8792 -0.6924 0.7948
-0.8736 -0.7968 0.5408
-1.3518 -0.5917 0.2843
-0.7881 -0.6252 -0.0154
-0.8327 -0.6556 0.6054
-0.8516 -0.6131 0.0084
-1.0995 -0.6906 0.3411
-1.4196 -0.5223 0.2612
-0.8233 -0.6355 -0.0820
-0.7997 -0.6486 0.5637
-1.4902 -0.6897 0.4080
-0.8824 -0.6159 0.0271
-0.7033 -0.7009 0.3545
-0.9357 -0.6484 0.7302
-0.6931 -0.6647 0.3154
-0.7701 -0.6887 0.5082
-1.1404 -0.5894 0.3377
-0.5208 -0.6316 0.4107
-1.0998 -0.5237 0.5623
-1.1729 -0.6997 0.7088
-1.1671 -0.6095 0.4642
-1.3140 -0.7055 0.6300
-1.1063 -0.6094 -0.0898
-1.3162 -0.8036 0.4912
-0.8847 -0.6481 0.7073
-0.7725 -0.5712 0.7417
-1.4504 -0.7267 0.2241
-1.2217 -0.6486 0.4000
-1.2896 -0.6997 0.4043
-1.2312 -0.6277 0.7981
-1.3236 -0.6170 0.6768
-1.3584 -0.6970 0.6956
-1.0699 -0.6617 0.3503
-1.3075 -0.6139 0.6192
-0.9839 -0.6091 0.2346
-0.8999 -0.6621 0.2418
-0.8949 -0.7512 0.1356
-0.8910 -0.6686 0.0905
-0.7515 -0.7611 0.8319
-0.8293 -0.6697 0.0142
-1.0268 -0.6598 -0.0329
-1.0159 -0.6879 -0.1051
-1.2537 -0.6470 0.3260
-1.1842 -0.6144 0.3085
-1.3341 -0.5469 0.2855
-1.3122 -0.6453 0.5911
-0.9107 -0.6112 0.1030
-1.0019 -0.7017 0.1718
-1.0300 -0.6616 0.0960
-1.1222 -0.6487 0.0244
-0.6581 -0.6689 0.3828
-0.8834 -0.6390 0.5219
-0.4776 -0.7300 0.2095
-1.2413 -0.6068 0.3965
-1.1186 -0.6141 0.8053
-1.2967 -0.6763 0.7592
-0.8806 -0.7648 0.2382
-1.2137 -0.7438 0.3036
-1.3752 -0.5966 0.3106
-1.3595 -0.5609 0.3352
-1.3167 -0.6797 0.2607
-1.2395 -0.6940 -0.0298
-1.2069 -0.7507 -0.1378
-1.1061 -0.6547 0.1418
-0.6884 -0.6278 0.3834
-0.5989 -0.6268 0.4210
-1.4034 -0.6472 0.4252
-1.1856 -0.6558 0.4524
-0.4767 -0.6131 0.2446
-0.9329 -0.7604 0.1559
-0.7153 -0.5503 0.3324
-1.2938 -0.7135 0.2200
-0.8420 -0.5146 0.5049
-0.7699 -0.6711 0.5884
-0.9531 -0.5418 0.7188
-1.5169 -0.7503 0.7028
-0.9787 -0.6907 0.7422
-0.2420 -0.6827 0.2677
-0.3950 -0.5978 -0.0246
-0.5933 -0.6120 -0.0322
-0.5122 -0.7136 1.1315
-1.4341 -0.7063 0.2383
-0.4597 -0.5143 1.1924
-0.7162 -0.5790 1.0028
-0.2706 -0.7548 0.3314
-1.0336 -0.7208 0.7151
-0.4929 -0.7481 0.1854
-0.9886 -0.6985 0.9539
-0.7293 -0.6881 0.9389
-0.5642 -0.6820 0.4301
-0.7501 -0.7355 0.5185
-0.3904 -0.7804 0.8892
-0.8188 -0.7148 0.5700
-0.7863 -0.7803 0.3774
-0.3902 -0.7337 0.1986
-0.4818 -0.7058 1.0696
-1.4458 -0.6532 0.4635
-0.5357 -0.7425 -0.0177
-1.2308 -0.7765 0.5977
-1.1566 -0.7737 0.6575
-0.7202 -0.7629 0.4202
-0.5975 -0.8078 0.0069
-0.8603 -0.8324 -0.2344
-0.7477 -0.7433 0.4707
-0.8712 -0.7460 0.5468
-0.9259 -0.6942 0.6940
-0.4980 -0.8516 0.6587
-0.2645 -0.7698 0.1194
-0.2742 -0.7548 0.1641
-0.5937 -0.6703 0.8132
-0.7926 -0.7318 -0.2059
-0.4048 -0.6435 1.2529
-0.4931 -0.6939 1.1049
-0.6190 -0.7206 0.9493
-1.1804 -0.7128 0.5497
-0.3474 -0.6949 0.1612
-0.6211 -0.7207 0.0529
-0.5384 -0.7130 0.5864
-0.1660 -0.7746 0.0680
-0.1644 -0.7432 0.1071
-0.1874 -0.7475 0.0994
-0.5185 -0.6584 0.6792
-1.2176 -0.6972 0.5392
-0.4568 -0.7544 0.8083
-0.8390 -0.7029 -0.0720
-0.4706 -0.6248 1.0620
-0.5720 -0.6342 0.5668
-0.7507 -0.3831 0.6912
-0.1592 -0.7391 0.1466
-0.4706 -0.7432 1.0961
-0.8122 -0.6797 0.6157
-0.7306 -0.6496 0.5655
-0.5572 -0.7547 0.7298
-0.0930 -0.5139 0.1130
-0.3408 -0.7584 0.2415
-0.3728 -0.7303 0.6177
-0.1388 -0.7440 0.2917
-0.5107 -0.6445 0.1919
-0.4876 -0.7377 0.2505
-0.9443 -0.7280 0.2718
-0.6812 -0.7288 0.8354
-0.1116 -0.5876 0.1370
-0.2096 -0.3880 0.0994
-0.0958 -0.5259 0.0905
-0.1725 -0.5503 0.0774
-0.1323 -0.6195 0.0847
-0.4863 -0.7107 0.6096
-0.7518 -0.7139 0.5254
-0.8209 -0.7621 0.3281
-0.5258 -0.7117 -0.0559
-0.1192 -0.4285 0.0644
-0.2239 -0.5024 -0.0057
-0.2776 -0.4551 0.0100
-0.2678 -0.6833 -0.1098
-0.2374 -0.7047 -0.0728
-0.1395 -0.6007 0.1706
-0.1013 -0.6892 0.1865
-0.2966 -0.6959 0.1704
-0.3589 -0.7603 0.2773
-0.6976 -0.6997 0.4560
-0.4435 -0.7125 0.7303
-0.4741 -0.7096 0.7483
-0.7748 -0.7478 0.5921
-0.5604 -0.6978 0.8114
-1.0093 -0.7210 0.5420
-0.6959 -0.7335 0.8252
-0.8464 -0.7532 0.6976
-0.0831 -0.5146 0.0278
-0.4775 -0.7110 -0.2415
-0.2419 -0.6832 -0.1149
-0.2084 -0.7289 -0.1029
-0.2893 -0.6823 -0.0946
-0.1491 -0.4660 0.1901
-0.5511 -0.6672 -0.0414
-0.1636 -0.7300 0.1404
-0.4577 -0.6845 0.3690
-0.9126 -0.6524 0.3449
-0.7719 -0.6702 0.6066
-0.5785 -0.7264 0.0154
-0.2507 -0.6707 -0.1531
-0.1924 -0.4731 0.0611
-0.2978 0.0221 0.9201
-0.1855 0.0012 0.4854
-0.2674 -0.6471 -0.0344
-0.2048 -0.0059 0.4027
-0.1397 -0.0153 0.8560
-0.1440 0.0023 0.8840
-0.3176 -0.0028 0.8207
-0.3676 0.0076 0.8298
0.1214 0.0609 0.4806
0.1242 -0.0187 0.6474
0.0961 -0.0192 0.7021
0.0412 -0.0203 0.6728
0.0366 0.1163 0.3939
-0.2262 -0.0050 0.7564
0.1777 0.0394 0.4285
-0.0860 -0.0233 0.3026
-0.0530 -0.0133 0.5545
-0.1916 -0.0082 0.5888
-0.0972 -0.0287 0.6757
-0.3048 0.0009 0.7156
-0.1233 0.0116 0.9666
-0.1964 0.0502 0.9450
-0.1000 -0.5974 0.0976
-0.2944 -0.7808 0.1614
0.3401 0.0325 0.4005
0.2662 0.0407 0.3916
0.2073 0.0451 0.4125
0.2670 -0.0009 0.5174
0.2010 -0.0128 0.5480
-0.0396 -0.0050 0.4605
0.2427 0.0096 0.6091
0.1248 -0.0151 0.5488
0.0877 -0.0120 0.5594
0.1311 -0.0047 0.5882
0.1121 -0.0170 0.7526
0.1046 0.0004 0.7840
0.0624 -0.0152 0.7608
0.0836 0.0102 0.8522
0.0471 0.0036 0.8737
-0.0406 -0.0249 0.8307
-0.0526 -0.0206 0.3836
-0.0275 -0.0269 0.4286
0.1160 -0.0185 0.5069
0.0019 0.0056 0.7637
-0.2326 0.0060 0.6505
-0.3520 0.0297 0.5859
-0.1825 0.0021 0.8991
-0.2763 -0.0183 0.9308
-0.3977 -0.0464 0.8858
0.3349 0.0098 0.4867
0.2728 0.0204 0.4973
0.1545 -0.0265 0.4467
-0.1049 0.0046 1.0371
0.3366 -0.0112 0.5517
-0.0652 -0.0186 1.0508
-0.0189 -0.0128 1.0690
0.0328 -0.0039 1.0903
0.3292 -0.0005 0.5861
0.0414 -0.0025 0.9833
0.1012 -0.0016 1.0163
0.0898 -0.0198 0.9374
0.2709 -0.0214 0.6558
0.2022 -0.0127 0.6252
0.1422 -0.0110 0.9604
0.3142 -0.0126 0.7115
-0.3188 -0.0203 0.6382
0.1116 0.0006 0.9029
0.2641 0.0033 0.7550
0.2626 -0.0210 0.7535
0.1452 -0.0198 0.6946
-0.0521 0.0044 0.7377
0.2418 -0.0248 0.8157
0.2305 -0.0112 0.8842
-0.0450 -0.0042 1.0132
0.0116 -0.0152 1.0088
0.0526 0.0006 1.0248
0.3030 -0.0176 0.5646
0.3306 0.0018 0.4455
-0.2138 -0.0156 0.9280
-0.1854 -0.4682 0.0611
-0.1225 -0.5760 0.1409
-0.1645 -0.0043 0.5305
-0.2046 -0.0118 0.5470
-0.3273 -0.0119 0.7823
-0.3486 -0.0049 0.8898
-0.1676 -0.9113 -0.1307
0.3531 -0.0156 0.3780
0.2638 -0.0218 0.3519
0.1791 -0.0350 0.3459
0.1196 -0.0206 0.3589
0.2954 -0.0352 0.4838
0.1984 -0.0203 0.4676
0.0095 0.0112 0.4279
0.2733 -0.0390 0.5426
0.2277 -0.0224 0.5944
0.0713 -0.0092 0.5290
0.0184 -0.0006 0.5280
0.0320 0.0035 0.5687
0.2427 -0.0320 0.6739
0.0389 -0.0301 0.7917
-0.1113 0.0094 0.7036
0.1922 -0.0232 0.9498
-0.2038 0.0061 0.7961
-0.0606 -0.0421 0.9075
0.1264 -0.0197 1.0730
-0.1118 0.0018 1.0172
0.2392 -0.0462 0.3291
-0.0847 -0.0198 0.2999
-0.0003 -0.0325 0.3693
-0.1230 -0.0016 0.6639
-0.2876 -0.0001 0.7606
-0.2095 -0.5294 -0.0167
-0.1103 -0.0192 0.3569
-0.2344 -0.0113 0.6079

