0.0236 -0.0118 -0.0155
-0.0604 -0.0726 -0.0684
-0.0780 -0.0678 -0.0804
-0.0913 -0.0797 -0.0605
-0.0775 -0.0677 -0.0469
-0.0648 -0.0692 -0.0736
-0.1013 -0.0959 -0.0140
-0.1420 -0.1292 -0.1318
-0.1281 -0.1135 -0.1100
-0.0179 -0.0401 -0.0545
-0.0871 -0.0906 -0.0473
-0.1004 -0.0928 -0.0252
-0.1810 -0.1383 -0.0501
-0.1000 -0.1037 -0.0838
-0.2110 -0.1786 -0.1571
-0.0849 -0.1001 -0.1124
-0.0147 -0.0271 -0.0455
0.0224 0.0010 -0.0413
-0.0542 -0.0742 -0.0687
-0.0971 -0.1132 -0.0758
-0.1383 -0.1403 -0.0344
-0.1402 -0.1260 -0.0782
0.0022 -0.0258 -0.0407
-0.1552 -0.1290 -0.0777
-0.3517 -0.3539 -0.1409
-0.1545 -0.1509 -0.0411
-0.0859 -0.0882 -0.0743
-0.0876 -0.0866 -0.0749
-0.0573 -0.0650 -0.0904
-0.0202 -0.0333 -0.0589
-0.0030 -0.0015 -0.0553
-0.1026 -0.1153 -0.0978
-0.0554 -0.0598 -0.0421
-0.3755 -0.2915 -0.1012
-0.5067 -0.7894 -0.1925
-0.6728 -0.5479 -0.0238
-0.6542 -0.5091 -0.1963
-0.0552 -0.0592 -0.0814
-0.0659 -0.1003 -0.0432
-0.1403 -0.1209 -0.0500
-0.1909 -0.1541 -0.0782
-0.0698 -0.0769 -0.0785
-0.0810 -0.0796 -0.0756
-0.5724 -0.4709 -0.3614
-0.0669 -0.0750 -0.0807
-0.0749 -0.0964 -0.0830
-0.0866 -0.0934 -0.0408
-0.0155 -0.0306 -0.0774
-0.0154 -0.0286 -0.0799
-0.0509 -0.0645 -0.0992
-0.0137 -0.0294 -0.0780
-0.0189 -0.0277 -0.0581
-0.1076 -0.1181 -0.1274
-0.0846 -0.0793 -0.0657
-0.1583 -0.1871 -0.1728
-0.3771 -0.3147 -0.0268
-0.0216 -0.0337 -0.0659
-0.1938 -0.1560 -0.0912
-0.6442 -0.6182 -0.3125
-0.0112 -0.0434 -0.0917
-0.0802 -0.0930 -0.1045
0.0143 -0.0929 -0.1053
-0.1365 -0.1396 -0.0464
-0.1714 -0.2067 -0.1885
-0.1537 -0.1207 -0.0550
-0.0027 -0.0211 -0.0843
-0.0457 -0.1122 -0.1033
-0.1439 -0.1195 -0.0469
-0.1883 -0.1441 -0.0540
-0.0338 -0.0482 -0.0736
-0.3354 -0.3401 -0.1891
-0.2446 -0.2100 -0.1097
-0.4503 -0.6016 -0.1666
-0.7005 -0.5149 -0.1233
-0.0460 -0.0810 -0.0965
-0.7211 -0.8324 -0.3555
-0.0784 -0.1077 -0.1057
-1.1732 -0.9980 -0.1099
-0.9174 -0.8395 -0.4673
-0.8595 -0.8276 -0.7017
-0.8397 -0.8277 -0.6669
-0.0922 -0.0975 -0.0819
-1.7815 -1.3494 -0.3346
-1.0426 -1.2073 -0.1645
-0.8166 -0.8364 -0.2494
-0.6914 -0.8229 -0.3229
-0.7716 -0.8384 -0.2085
-0.6461 -0.8068 -0.6140
-0.6309 -0.8100 -0.5819
-0.8084 -1.0359 -0.3098
-1.1692 -0.9664 -0.1534
-0.8708 -1.1509 -0.1474
-0.5630 -0.8090 -0.4939
-1.1928 -0.9328 -0.1696
-0.6669 -0.7935 -0.4117
-0.8913 -0.8235 -0.6817
-0.6815 -0.8249 -0.4681
-0.8256 -0.8233 -0.4637
-0.7934 -0.9323 -0.4302
-0.5718 -0.8041 -0.5500
-0.8891 -0.9136 -0.4993
-0.8755 -0.8961 -0.3592
-0.9447 -0.9072 -0.3800
-0.9086 -0.8407 -0.3815
-0.8039 -0.9875 -0.3125
-0.8851 -0.8394 -0.3232
-0.6730 -0.9773 -0.2419
-0.8041 -0.8621 -0.5873
-0.9149 -0.8633 -0.2227
-0.5658 -0.8412 -0.1667
-0.7622 -0.9989 -0.2439
-0.7222 -0.8612 -0.4546
-0.7956 -0.8087 -0.5040
-0.6121 -0.8524 -0.1420
-0.9066 -0.8849 -0.1095
-0.8394 -0.8747 -0.0936
-0.8538 -0.8537 -0.2904
-0.4032 -0.7800 -0.4795
-0.5163 -0.7697 -0.5385
-0.4990 -0.8419 -0.3907
-0.8776 -0.9169 -0.5540
-0.5762 -0.9415 -0.4793
-0.8693 -0.8399 -0.3787
-0.4726 -0.7962 -0.4617
-0.5594 -0.8709 -0.2695
-0.5025 -0.8354 -0.3630
-0.5005 -0.7967 -0.5708
-0.7640 -0.8685 -0.0971
-0.4427 -0.7964 -0.5620
-0.8244 -0.8398 -0.3297
-0.8191 -0.8714 -0.1513
-0.3947 -0.7908 -0.5329
-0.4676 -0.4485 -0.1980
-0.5572 -0.8791 -0.4050
-0.5582 -0.8592 -0.5553
-0.5553 -0.7984 -0.5884
-0.4787 -0.7944 -0.4372
-0.5051 -0.8439 -0.2895
-0.5390 -0.8357 -0.3460
-0.4806 -0.8370 -0.4401
-0.9438 -0.8718 -0.2440
-0.9785 -0.8264 -0.5119
-1.0522 -0.8523 -0.4031
-1.0440 -0.9460 -0.5678
-1.0021 -0.8575 -0.5717
-1.1211 -0.9209 -0.6712
-0.6772 -0.8391 -0.3924
-0.9837 -0.8789 -0.5104
-0.2250 -0.2133 -0.1607
-0.6223 -0.8291 -0.4582
-0.7004 -0.8307 -0.2076
-0.6269 -0.8511 -0.5159
-0.7942 -0.8444 -0.3468
-0.9012 -0.8528 -0.4826
-0.6693 -0.8024 -0.3635
-0.6004 -0.9235 -0.5824
-0.9941 -0.8450 -0.3493
-0.9626 -0.9704 -0.3063
-0.4377 -0.7770 -0.4384
-0.5005 -0.9081 -0.5343
-0.7848 -0.8438 -0.1847
-0.5171 -0.8403 -0.5365
-0.4375 -0.8085 -0.5088
-0.4903 -0.8404 -0.4160
-0.4711 -0.7887 -0.5428
-0.6933 -0.9311 -0.6417
-0.8615 -0.8289 -0.4490
-0.4892 -0.5059 -0.3929
-0.7485 -0.8532 -0.2198
-1.7134 -0.6961 -1.0925
-0.8703 -0.8251 -0.5595
-0.7284 -0.8249 -0.3054
-0.7804 -0.8236 -0.3224
-0.7162 -0.8334 -0.2736
-0.8712 -0.8408 -0.5362
-0.7495 -0.8319 -0.2596
-0.4422 -0.7769 -0.5196
-0.4154 -0.7854 -0.5240
-0.7895 -0.8313 -0.6115
-0.5105 -0.8060 -0.5585
-0.8785 -0.8786 -0.6485
-0.6752 -0.8348 -0.5208
-0.8515 -0.8224 -0.6084
-0.5573 -0.8318 -0.2815
-0.7607 -0.8183 -0.3673
-0.7366 -0.8263 -0.3845
-0.7931 -0.8136 -0.6728
-0.6459 -0.8182 -0.5607
-0.7508 -0.8070 -0.6451
-0.7729 -0.8107 -0.4941
-0.5936 -0.8062 -0.5896
-0.9906 -0.8260 -0.5708
-0.5753 -0.8719 -0.3228
-1.5977 -2.1364 -0.3805
-2.8259 -1.2063 -1.4003
-2.1197 -1.0644 -1.7879
-0.6769 -0.8033 -0.5949
-0.5276 -0.8311 -0.2726
-0.8576 -0.8401 -0.4228
-0.7120 -0.8275 -0.3767
-0.7934 -0.9234 -0.6100
-0.6878 -0.8688 -0.3646
-0.9115 -1.2046 -0.6282
-0.7055 -0.8081 -0.4250
-0.5033 -0.8265 -0.3385
-0.5751 -0.7956 -0.4144
-0.6047 -0.7714 -0.4202
-0.7993 -0.8052 -0.4794
-0.4643 -0.7948 -0.4861
-0.7251 -0.6473 -0.4291
-0.7483 -0.9232 -0.6560
-0.8078 -0.8198 -0.5884
-0.8042 -0.8350 -0.3827
-0.9374 -0.8709 -0.4084
-0.8677 -0.8093 -0.6967
-0.4908 -0.8362 -0.3103
-0.5929 -0.7718 -0.5795
-0.5134 -0.8198 -0.2946
-0.5048 -0.7668 -0.5644
-0.7017 -0.8589 -0.3734
-0.7961 -0.8085 -0.6447
-2.2448 -1.2438 -1.7560
-1.8743 -0.8022 -1.6060
-1.0122 -0.8436 -0.6869
-0.9800 -0.8372 -0.6561
-1.0040 -0.8150 -0.5779
-0.9196 -0.8238 -0.6902
-0.6768 -0.8155 -0.3448
-0.4452 -0.7304 -0.2983
-0.6792 -0.7880 -0.4412
-0.6387 -0.8301 -0.4095
-0.5123 -0.8517 -0.3699
-0.4813 -0.8173 -0.3864
-0.6176 -0.9249 -0.5327
-0.6402 -0.9248 -0.5702
-0.6966 -0.8040 -0.6278
-0.4700 -0.8516 -0.4305
-0.4158 -0.8001 -0.4713
-0.5289 -0.7392 -0.5709
-0.4411 -0.7513 -0.5433
-0.4185 -0.8251 -0.5262
-0.4858 -0.8376 -0.3333
-0.4156 -0.7914 -0.5432
-0.4405 -0.7988 -0.5816
-0.7529 -0.9081 -0.5159
-0.8697 -0.8497 -0.5055
-1.1425 -0.9367 -0.7744
-1.0369 -0.8608 -0.6785
-1.0974 -0.9169 -0.7491
-0.8948 -0.8475 -0.6790
-0.8861 -0.8015 -0.7022
-0.8051 -0.8017 -0.6739
-1.0466 -0.8548 -0.6235
-0.9452 -0.8278 -0.7270
-0.4449 -0.8986 -1.1957
-0.1751 -0.7580 -0.9728
-0.3898 -0.2794 -0.5503
-0.3902 -0.8035 -0.5667
-0.5010 -0.9616 -1.4015
-0.5456 -0.8066 -0.5429
-0.7050 -0.8512 -0.4792
-0.7740 -0.8031 -0.6288
-0.6910 -0.8526 -0.4535
-0.9329 -0.9147 -0.6339
-0.7719 -0.8214 -0.6308
-0.6259 -0.7944 -0.4195
-0.4976 -0.8039 -0.6022
-0.5783 -0.8884 -0.4718
-0.6942 -0.9212 -1.6807
-0.6774 -0.9482 -1.6576
-0.8833 -0.8523 -0.6283
-1.0303 -0.8386 -0.5009
-0.5320 -0.8236 -0.2410
-0.5298 -0.8363 -0.1840
-0.4234 -0.8004 -0.4469
-0.7998 -0.8355 -0.4044
-0.4416 -0.7943 -0.5609
-0.4214 -0.7734 -0.4852
-0.6156 -0.7871 -0.5590
-0.4600 -0.7893 -0.4854
-0.4922 -0.7734 -0.5333
-0.6403 -0.7922 -0.4928
-0.5170 -0.8002 -0.4255
-0.6369 -0.7946 -0.6065
-0.4223 -0.7940 -0.4382
-0.6269 -0.6815 -0.5932
-0.4332 -0.7815 -0.4644
-1.7767 -0.9102 -1.5747
-0.6693 -0.7833 -0.3720
-0.6290 -0.7808 -0.3665
-0.6755 -0.8162 -0.4566
-1.1058 -1.3665 -0.8293
-0.5334 -0.7712 -0.4890
-0.4760 -0.7972 -0.4551
-0.5174 -0.8010 -0.5229
-0.5076 -0.8322 -0.2590
-0.5187 -0.7884 -0.2967
-0.5169 -0.8269 -0.2994
-2.1481 -1.1923 -1.6706
-0.8171 -0.7878 -0.2536
-0.7806 -0.7752 -0.2390
-0.7307 -0.7756 -0.2253
-0.7069 -0.7759 -0.2166
-0.6898 -0.7903 -0.2084
-1.1397 -1.5736 -0.2051
-0.8468 -0.7776 -0.3318
-0.5199 -0.7835 -0.1826
-0.8341 -0.7728 -0.3531
-0.6888 -0.7800 -0.2849
-1.0006 -0.7855 -0.4418
-0.9464 -0.7839 -0.4247
-0.7151 -0.7876 -0.3159
-0.9321 -0.8160 -0.4174
-0.6066 -0.7869 -0.3846
-1.3254 -1.5586 -0.7596
-0.4551 -0.7827 -0.3930
-0.4982 -0.7886 -0.4592
-0.5388 -0.7916 -0.5256
-0.5489 -0.7784 -0.5520
-0.4815 -0.7856 -0.5069
-2.3551 -1.0268 -1.3332
-0.6411 -0.8017 -0.0207
-1.1196 -0.8152 -0.1869
-0.9518 -0.7904 -0.1467
-0.5063 -0.5382 -0.1079
-0.9578 -0.7999 -0.1895
-0.5724 -0.7862 -0.4006
-0.8267 -0.7767 -0.1942
-0.7712 -0.7706 -0.1641
-0.7176 -0.7734 -0.1706
-0.7335 -0.7717 -0.2028
-0.7194 -0.7823 -0.1949
-0.7165 -0.7822 -0.2932
-0.6528 -0.7832 -0.2214
-0.7750 -0.7761 -0.2615
-0.7416 -0.7750 -0.2774
-0.8902 -0.7738 -0.2903
-1.0271 -0.7789 -0.3298
-1.4142 -1.1252 -0.1235
-0.8411 -0.7797 -0.2454
-0.9094 -0.7774 -0.1080
-0.8761 -0.7780 -0.1057
-0.8421 -0.7735 -0.2115
-0.8324 -0.7897 -0.4488
-1.0890 -1.3048 -0.6843
-0.6822 -0.7875 -0.3319
-0.9834 -0.7903 -0.2383
-0.8768 -0.7852 -0.4620
-0.8476 -0.7728 -0.1890
-1.0184 -0.7915 -0.2230
-0.9816 -0.7693 -0.3441
-0.8018 -0.7890 -0.5442
-0.7853 -0.7969 -0.4918
-0.4524 -0.3787 -0.2918
-1.0866 -1.3311 -0.7726
-0.9657 -0.7863 -0.4709
-0.6802 -0.7824 -0.5128
-0.3450 -0.1546 -0.1864
-0.4837 -0.7780 -0.2937
-2.2309 -0.9997 -2.1698
-2.8733 -1.4841 -1.0076
-1.0264 -1.5353 -0.1305
-2.2010 -0.8960 -1.3075
-0.9183 -0.7872 -0.5252
-0.8439 -0.7818 0.0764
-0.4858 -0.4571 -0.3163
-0.9121 -0.7706 -0.4701
-0.4337 -0.4394 -0.0196
-0.5594 -0.7809 -0.5264
-0.6546 -0.7649 0.0387
-0.6969 -0.7575 0.0236
-0.6670 -0.7588 0.0089
-0.6328 -0.7553 -0.0065
-0.9458 -0.7528 -0.0972
-0.8805 -0.7467 -0.0842
-0.6690 -0.7792 -0.2537
-0.9539 -0.7745 -0.3622
-0.6946 -0.7839 -0.0667
-0.8197 -0.7793 -0.3014
-0.6383 -0.7765 -0.0514
-0.6941 -0.7715 -0.2387
-0.7394 -0.7918 -0.2574
-0.7926 -0.7707 -0.2693
-0.6541 -0.7767 -0.4892
-0.5139 -0.7664 -0.1566
-0.5419 -0.7690 -0.1645
-0.9840 -0.7750 -0.2675
-0.5992 -0.7674 -0.1560
-0.7787 -0.7598 0.0131
-0.2154 -1.3017 -0.8112
-0.5936 -0.7759 -0.2045
-0.5796 -0.7662 -0.1249
-0.6636 -0.7724 -0.1489
-0.6127 -0.7670 -0.1095
-0.2542 -0.2957 -0.2331
-1.1460 -1.5238 0.1026
-0.2968 -0.3055 -0.1551
-0.7031 -0.7881 -0.3650
-0.7757 -0.8099 -0.3915
-0.7276 -0.7824 -0.3498
-0.6588 -0.7840 -0.3044
-0.7053 -0.8061 -0.3196
-0.7600 -0.7619 -0.0753
-0.8830 -0.7448 -0.0617
-0.7919 -0.7506 0.1005
-0.8347 -0.7443 0.0840
-0.7613 -0.7684 -0.1878
-0.7451 -0.7940 -0.3277
-0.7793 -0.7490 0.0556
-0.2440 -0.2154 -0.0246
-1.0285 -1.4763 -0.3373
-0.4871 -0.7708 -0.1725

