-0.1593 -1.4620 -0.6870
-0.1211 -0.6006 0.1951
-0.1591 -0.5865 0.2425
-0.0535 -0.6085 0.2462
-0.1794 -0.6084 0.2968
-0.0091 -0.6380 0.3892
-0.0275 -0.6141 0.1152
-0.2495 -0.5807 0.1914
-0.2172 -0.5380 0.1978
-0.2141 -0.5984 0.1743
0.0088 -0.6492 0.3743
-0.2163 -0.5766 0.2847
-0.1540 -0.5321 0.3229
-0.2112 -0.5541 0.2539
0.1856 -0.6196 0.2083
0.1838 -0.6257 0.1576
0.0243 -0.5990 0.2458
-0.2054 -0.5877 0.2193
-0.0229 -0.6263 0.3228
-0.2736 -0.6003 0.1704
-0.0933 -0.6188 0.3567
0.2330 -0.6428 0.1476
-0.0168 -1.4390 -0.7308
0.0018 -0.6638 0.2933
-0.2417 -0.5834 0.2211
-0.2080 -0.6030 0.1415
0.2305 -0.6794 0.1835
-0.1283 -0.5622 0.2003
-0.1101 -0.2898 0.2299
-0.1284 -0.0293 -0.0456
0.1255 -1.5983 0.2188
0.1473 -2.1249 0.3490
-0.0624 -0.4011 -0.0279
-0.0377 -2.0928 0.4549
-0.0951 -2.3169 -1.0039
-0.1385 -0.4369 0.3211
0.0161 -0.9873 0.5481
-1.3527 -3.3958 0.8526
-0.2762 -3.7315 -0.3583
-1.6895 -3.2386 1.3772
-1.3695 -2.0112 0.7384
-0.5434 -1.6815 1.0179
0.7491 -6.7132 1.2123
0.3458 -4.5202 0.5808
-0.6203 -4.7863 -0.4222
0.1233 -3.7767 -0.1150
-0.2064 -4.5535 -0.1708
0.2723 -5.0226 -0.5769
0.3920 -4.6121 0.4651
0.7775 -3.6992 0.9387
-1.6351 -8.5331 2.8047
0.4966 -3.6954 0.9435
-0.5698 -3.9173 0.6484
-0.4484 -3.7334 0.9713
-0.2932 -3.6620 0.9541
-0.9508 -3.3247 -0.2126
-1.3824 -5.8824 -1.2534
-1.5852 -4.5567 0.1339
-0.8170 -3.1833 0.4739
-1.1912 -4.4404 0.7746
-0.0858 -4.9494 -0.4551
-0.1199 -3.2560 0.2385
-0.2992 -3.7866 1.1063
-1.8158 -2.8327 1.1287
-0.8932 -3.6366 3.0517
-1.8034 -3.4196 2.2060
-1.7432 -3.2879 0.9492
-0.1261 -3.3124 0.4118
-1.1181 -7.0720 2.4457
-1.1025 -3.2711 2.9340
-1.1548 -3.3608 2.7765
-1.4496 -4.3793 3.5403
-1.8188 -3.0656 1.1474
-0.8483 -4.7476 1.6477
-1.1232 -3.8269 -0.5670
-1.4024 -3.4809 -0.1604
-1.4836 -3.1323 0.2433
-1.1220 -3.3838 3.2906
-1.6710 -3.7518 0.2353
-2.5299 -4.0906 1.1300
0.1795 -3.3231 0.2298
-0.0418 -3.8308 0.4312
0.1260 -3.3748 0.1088
-1.3102 -4.9362 -0.4738
-1.0031 -3.0954 1.0457
-0.1578 -3.7357 0.0047
-0.6278 -3.6176 0.4660
-1.7889 -3.9233 0.9762
-1.2496 -3.1735 1.4285
0.2016 -4.6010 -1.5479
0.1989 -3.1623 0.4369
-3.3245 -3.9299 0.9195
-2.5059 -3.3200 0.9106
-2.3812 -2.8145 1.0050
-1.2808 -4.3557 -0.7037
0.0832 -5.1014 -2.1853
0.2057 -4.0951 -1.4376
-1.9727 -3.9547 1.1052
-1.4609 -3.1810 0.8588
-0.6068 -3.4791 0.0662
-0.8599 -4.3496 0.0611
-0.2508 -3.5738 -0.2081
-1.7678 -3.8799 1.3009
0.1624 -4.9171 -0.3223
-0.8769 -3.6878 2.5223
0.2542 -3.8055 0.3496
0.1937 -3.8135 0.4360
-0.6318 -3.5705 1.2408
-0.7162 -3.5262 1.3135
-0.5209 -3.3582 1.8562
-0.3351 -3.5124 0.9421
-0.7488 -3.4571 1.4331
0.3020 -3.1356 0.5024
-0.8638 -4.4207 2.3901
-2.9782 -5.0293 4.3053
0.1163 -1.9362 1.0276
-1.8761 -3.2919 2.8433
-0.3975 -3.6645 0.1800
-1.1854 -4.8570 0.7604
-0.4807 -3.6288 0.5274
-2.6972 -3.1446 0.9811
-0.4085 -3.4178 0.5399
1.4600 -3.8922 0.5641
-0.6383 -4.2736 0.8775
-2.3794 -2.8661 1.4480
-0.7808 -3.5308 1.9096
-0.3669 -3.4186 0.5688
0.2209 -3.6138 -1.1769
-1.1967 -2.9889 -0.2833
-2.2807 -3.0232 0.6978
-1.9430 -2.5025 0.5765
-0.9606 -2.5973 -0.0238
-1.4521 -3.8526 -0.0089
-1.5214 -2.4110 0.5060
-1.6703 -2.8298 0.6083
-1.7541 -2.2009 0.9947
-0.8248 -2.7171 0.0826
-0.0727 -1.1336 -0.1713
-2.0476 -3.2845 0.3629
-1.3943 -3.7613 3.5247
-1.4612 -3.2528 3.4269
0.4110 -2.9073 0.7565
-0.1506 -3.2487 -0.2147
-0.1164 -4.4675 -0.0908
0.7191 -1.9767 0.5672
0.3548 -4.6181 -0.2853
-1.3484 -3.6016 3.1446
-0.4204 -3.7063 0.4330
0.2609 -3.9755 -1.3898
-0.8712 -3.3524 2.0011
-1.8768 -3.2035 0.8324
1.0922 -4.5878 -0.3685
-1.3370 -3.1640 1.6782
1.1171 -3.8198 -0.0549
0.2511 -3.1239 0.3595
-0.2801 -2.8961 1.5617
1.3162 -3.0649 0.2290
0.2123 -3.2902 0.4028
-1.7010 -2.9284 0.9573
-1.4995 -3.0576 0.7326
1.1889 -3.9272 -0.2189
0.0305 -2.6211 0.7183
0.2385 -1.8906 1.3512
-0.4768 -3.3365 2.3704
0.1830 -2.3748 1.2195
0.1543 -4.1169 -0.5236
-0.9962 -3.3841 1.8660
-0.0764 -4.2751 -0.0509
0.7413 -2.4327 1.1767
0.1806 -3.4855 0.1494
0.3641 -2.5201 0.8619
-0.1509 -2.8536 1.5239
-0.1784 -3.2607 0.2893
0.3512 -3.6762 0.6972
0.9035 -3.9971 -0.1881
-0.2053 -3.2112 0.4773
-1.9531 -2.8582 1.5526
-0.9783 -3.1462 0.2196
-0.2945 -3.3137 -0.4953
-0.6171 -3.1760 -0.3196
0.0612 -3.2259 0.1642
0.1670 -3.2466 -0.4388
-1.7186 -3.2333 -0.0216
-1.7355 -3.2281 -0.0486
-2.3919 -4.4882 -0.1615
-0.8886 -3.4838 1.9707
-0.8333 -3.4774 -0.6045
-1.8701 -3.9313 0.3853
-1.8757 -3.6886 0.4978
-2.1134 -3.0904 1.1143
-1.0225 -3.6500 3.1702
-1.8122 -3.9787 1.4288
-3.7768 -4.3903 0.9245
-2.0060 -3.0246 1.0940
-2.3907 -3.7086 0.9282
-2.6954 -4.1408 1.6188
-1.1999 -3.3662 0.4358
-1.0893 -4.4469 -0.4858
-0.8007 -3.1934 2.7275
1.0029 -3.5938 -0.1648
-1.7106 -3.9296 -0.0210
-2.0052 -5.2083 -0.3659
-0.2329 -3.7977 -1.1231
1.3301 -5.2778 -0.3839
0.9248 -3.5373 -0.1432
0.2806 -3.6516 -1.0735
0.2081 -3.7333 -0.6779
-0.3422 -3.4949 -0.9259
0.6348 -3.7382 -0.7781
-0.2380 -4.0117 -0.2361
0.6514 -3.8075 -0.6488
0.5132 -3.6965 -0.4780
-0.8531 -5.3690 0.0739
0.6558 -4.0791 -1.0960
0.0898 -4.0314 -0.1506
0.4438 -2.1184 1.1885
0.1581 -3.6944 -0.0345
-0.0970 -2.7100 2.0010
-0.9896 -3.5179 -0.2188
0.4093 -5.5387 0.2463
-0.4832 -4.0514 2.7384
-1.2021 -3.8725 1.3647
-0.5840 -3.6649 -0.1167
1.0888 -4.8735 -0.8045
1.4709 -3.2449 0.5584
0.2929 -3.4319 1.2184
0.0138 -4.6523 -0.4998
1.1550 -4.8475 1.1049
0.7465 -4.3886 -0.9533
0.3455 -3.2472 0.8640
-2.3271 -3.9943 0.0233
-1.3379 -3.7705 3.2242
-1.7913 -4.6345 -0.3928
-2.3033 -4.5231 1.3515
-4.8908 -5.8118 1.5493
-2.8945 -3.9385 1.8636
-2.1476 -3.7732 0.4217
-1.6039 -5.0156 -0.0682
-0.3660 -3.6255 1.0403
-1.0644 -5.5413 1.8043
0.4483 -3.7990 2.1620
0.8347 -4.6706 2.0821
0.1740 -3.1931 1.6878
-0.4019 -2.7054 0.4901
-0.4431 -4.3192 1.3973
0.0770 -4.1880 2.1993
0.5721 -2.9761 1.6146
0.4711 -3.1505 1.7331
0.1392 -3.2129 1.7780
-0.4302 -3.7575 1.0421
-0.2268 -4.7206 1.1416
-0.3904 -4.6733 -0.7237
-1.0892 -3.2050 0.6715
1.3280 -5.6552 -0.5203
0.1008 -6.9525 0.3880
1.3742 -6.0869 -0.3712
-2.8428 -6.0703 1.4229
-2.4431 -5.8325 1.9465
-0.7848 -6.3832 1.3788
0.0346 -5.7051 -0.7313
-3.2348 -6.4284 0.9265
-2.2204 -4.8251 -0.4981
-3.2231 -5.4892 5.0070
-2.8155 -5.7873 0.2603
-1.3332 -5.4746 3.3056
-1.6439 -6.6983 0.9979
-4.9639 -6.0661 2.5498
-5.7412 -6.2979 2.4466
-1.8566 -7.1100 0.0865
-4.4132 -5.3841 1.7618
-3.3793 -5.0483 1.2529
-5.1655 -8.8781 5.1423
-3.0724 -5.4137 3.6001
-0.4248 -7.0565 0.4595
-2.6805 -4.9765 0.2872
0.5703 -6.5517 -0.5780
1.8125 -5.4679 -0.2051
-1.4772 -5.2443 3.9855
-0.9048 -6.3400 0.6067
0.7893 -5.5939 -0.4076
-0.9250 -6.3097 1.0404
-0.4372 -4.3546 0.5593
-4.7539 -7.7899 1.7717
-3.6002 -5.6209 1.1912
-1.4911 -4.0566 -0.0420
-0.6008 -3.6474 0.3555
-4.6999 -7.6114 6.3662
-3.4567 -5.5799 4.6258
-0.1029 -8.9294 0.1735
1.4054 -8.0873 -0.5712
-1.9588 -4.5293 2.8973
-0.5885 -6.1849 1.9083
-2.3278 -6.4567 1.5312
-3.3972 -6.3344 0.8351
-0.4840 -1.4652 0.6424
-3.1510 -6.2530 1.6385
-0.3556 -1.0541 0.3827
0.0346 -0.7809 0.0018
-0.4950 -1.1555 1.1842
-0.2085 -10.1650 -0.3039
-1.3561 -5.6142 3.6079
-1.3097 -4.7164 -0.4054
-4.1676 -7.3152 -3.1475
-1.6321 -4.2120 -1.3749
-3.5419 -5.4330 1.9507
-3.6283 -4.3076 1.5732
-5.2943 -9.7189 1.4369
-2.3119 -10.3560 -1.7438
-4.8839 -9.8577 4.4082
-3.2025 -10.1554 0.4801
0.3246 -9.0490 -0.9023
-3.8641 -8.9934 -1.3116
-1.1642 -11.6125 4.8937
-3.8114 -8.3970 1.4128
-4.2026 -9.8098 -1.9708
-10.2819 -7.8191 -0.5122
-10.3012 -7.8900 -0.1008
-10.2183 -8.7496 4.5206
-4.1095 -8.8554 -1.5313
-8.3799 -8.7533 4.9775
-5.8675 -10.6960 1.5852
-2.5343 -11.3002 6.6959
-2.1857 -11.1425 5.6591
0.1316 -9.5650 -0.6333
-11.5923 -8.3379 -2.6919
-4.4439 -8.2550 -1.3674
-1.5788 -9.9866 -0.5819
-1.6870 -11.1542 3.6361
-6.7445 -11.0106 5.8350
-5.3727 -8.0336 -3.2216
-3.2509 -6.4116 2.3959
-2.8314 -10.5060 3.9061
-5.3519 -11.6248 4.9121
-0.3284 -0.5768 0.9637
-2.7272 -9.9175 -0.3996
-10.0922 -6.9285 -2.2573
-0.4656 -7.1656 2.0582
-13.3154 -8.0993 1.4777
-2.5834 -10.8873 6.0797
-3.6870 -4.9743 -2.3351
-5.0223 -7.8895 -3.4433
-1.7730 -10.3860 6.3687
-5.4191 -7.9455 -1.6389
-2.2801 -7.3221 -0.1405
-9.9283 -6.9360 -2.4059
0.3663 -10.8702 1.2389
-3.1137 -9.6514 0.3309
-3.8852 -9.9840 -0.1021
-7.8006 -9.5611 3.8798
-0.0607 -10.2269 2.1162
-9.1646 -7.9069 -3.6029
-7.9153 -9.5284 -0.0804
0.1101 -10.7065 0.7213
-9.6034 -9.8640 4.8480
-4.2482 -7.6472 -3.3750
-7.6353 -6.3783 -4.8936
-3.8966 -7.2369 -2.8687
-8.2431 -7.2907 -4.5645
-1.9620 -8.9887 -1.7130
-2.2939 -11.5445 7.2568
-4.9596 -9.5266 5.5947
-9.0836 -7.9335 1.3107
-4.5828 -10.0771 4.8724
-7.3461 -7.3879 -1.0452
-4.0796 -7.2608 -3.3324
-6.9155 -6.6593 -4.6234
-0.3833 -9.4279 -0.5162
-4.0260 -8.5356 -1.7521
-2.4156 -10.3232 0.2936
-1.4795 -10.8551 1.3072
-2.2674 -10.1710 0.2746
-0.8531 -4.0643 -0.0334
-0.6749 -11.4022 3.2983
-7.3131 -14.0928 0.2350
-0.7016 -11.4118 2.2670
-6.2049 -3.0353 1.9438
-0.6606 -11.7432 1.9308
0.7772 -13.6295 -2.3165
-4.8242 -9.5612 3.2284
-9.6221 -7.0302 -4.5051
-12.1100 -8.0563 -2.5963
-2.0780 -9.3127 0.8271
-2.3078 -0.9992 0.3288
-4.6236 -8.6767 -0.6054
-0.2353 -10.3233 1.2393
-2.4257 -7.3205 -2.0047
0.1138 -9.9890 1.2959
0.1052 -9.5356 1.2637
-5.3082 -9.8262 1.6508
-2.0949 -10.5450 6.2099
-5.6395 -6.7875 -3.5181
-0.8979 -9.5851 -0.7196
-2.7536 -7.6518 -2.6959
-7.9432 -7.2484 -3.3598
-0.7660 -11.1673 1.7479
-3.9630 -8.8525 -0.3975
-3.6788 -9.2154 -0.2417
-6.0518 -8.7646 -0.6671
-2.8468 -5.2221 -0.5427
-4.6913 -8.3589 4.2006
-4.1723 -9.6562 3.0954
-0.9886 -0.0918 0.7671
-7.2493 -8.9468 -2.4173
-3.4432 -8.3624 -1.9460
-2.8766 -9.2936 -0.6774
-1.7588 -11.0634 4.5776
-1.1067 -9.7907 -0.6564
-3.8970 -8.5450 -1.8263
-2.6364 -9.3720 -0.6414
-1.8429 -7.8745 -0.0521
-7.1291 -9.7905 -2.6524
-5.2573 -9.4183 1.5636
-5.1684 -9.7322 1.2008
-1.5344 -10.3636 0.9356
0.3254 -11.4312 3.1722
-1.4720 -11.2716 5.8885
-3.6015 -10.1273 0.2034
-6.0406 -9.7308 -1.6311
-2.0340 -9.5120 6.3890
-4.7760 -9.7165 4.6294
-3.0917 -2.7504 -0.8235
-6.5871 -7.0451 -2.7806
-5.1541 -8.7426 -1.3942
0.4275 -10.6211 3.4035
-3.4942 -11.2376 -0.0852
-3.6220 -9.6969 0.1339
-2.4601 -2.0366 1.9738
-0.8122 -8.9626 5.4609
-3.0276 -10.5461 0.9300
-0.5809 -3.7002 3.6430
-4.8582 -7.7373 6.0102
-6.4906 -7.6023 5.4986
-2.7798 -7.9434 4.3884
-3.6242 -8.5534 3.9883
-0.8528 -3.8313 0.8328
-9.2541 -8.9529 0.5747
-3.4054 -7.6188 5.8475
-0.9367 -4.9283 2.0678
-6.5694 -7.6857 4.9970
-2.7746 -8.6137 4.8570
-2.4218 -7.7277 5.6594
-3.7001 -6.3947 5.8424
-0.7458 -2.1865 3.1723
-6.3935 -7.7888 4.1279
-9.1067 -4.9941 4.4919
-8.9484 -10.6263 -0.9058
-7.3084 -7.6912 5.0542
-5.5248 -10.4440 1.5710
-7.3595 -11.6562 0.7172
-1.6228 -2.6507 3.8982
-9.2670 -4.0389 1.2351
-12.1136 -12.4263 -0.1086
-3.3975 -7.8290 1.9946
-3.2627 -5.9732 3.6847
-2.2121 -3.2732 -0.6159
-2.5784 -8.1391 -0.9803
-0.5820 -10.1486 1.5731
-2.3749 -9.1770 -1.8712
-12.6956 -7.4890 0.6840
-0.6064 -1.4704 1.0403
-4.6831 -5.2880 3.8072
-4.8648 -4.2952 5.6420
-2.6205 -3.1684 3.4953
-2.8930 0.6573 3.4926
-5.6592 -1.6047 3.5379
-3.3154 -3.5855 1.4093
-2.2897 0.3539 3.4347
-3.0239 -1.5533 2.6018
-2.7958 0.1132 3.7792
-5.9919 0.6239 4.9844
-1.4635 -0.2166 3.8102
0.0177 -0.0011 0.0856
0.0073 -0.0253 0.0336
-0.0096 -0.0147 0.0454
0.0058 0.0060 0.0524
-0.0017 -0.0092 0.0986
-0.0095 -0.0187 0.0883
-0.0501 -0.0861 0.2155
0.0073 -0.1928 0.4068
-0.0653 -0.1271 0.1788
-0.3645 -0.7073 0.9931
0.3717 -0.7829 1.0976
0.3330 -0.6994 0.9648
0.1798 -0.6873 0.9916
0.1198 -0.7122 1.0299
0.2070 -0.5920 0.8630
0.0655 -0.7738 0.9625
-0.0528 -0.6992 0.9805
-0.2859 -0.6648 0.9403
0.3292 -0.6961 0.9040
0.2717 -0.7056 0.9139
-0.2580 -0.6814 0.7042
-0.3390 -0.6921 0.9429
0.3600 -0.7491 1.1411
-0.3625 -0.7016 1.0585
0.6175 -1.4339 1.0546
0.0092 -0.6980 1.1736
0.3440 -0.6616 1.3146
-0.0195 -0.6640 1.1527
-0.0515 -0.7386 1.1783
0.2096 -0.6667 1.1487
0.2578 -1.3720 0.7852
0.6270 -1.3926 0.9977
-0.3734 -0.7507 1.1711
0.0689 -0.7507 1.2049
0.0094 -0.6831 1.2162
-0.6416 -1.3990 1.0528
0.1292 -0.7355 1.2462
0.1004 -0.6853 1.1816
-0.3592 -0.7796 1.1385
-0.1659 -0.7388 1.1617
0.3584 -0.7366 1.1965
-0.0286 -0.0131 0.1199
0.3310 -0.7523 1.0670
0.1306 -0.7016 1.1739
-0.3061 -0.7246 0.9533
-0.1130 -0.7139 0.9999
0.1564 -0.7061 1.0525
0.0399 -0.7130 1.2276
-0.3543 -0.6786 1.1992
-0.1920 -0.6793 1.2288
0.3379 -0.6592 1.2021
0.1989 -0.6633 0.9305
-0.3434 -0.6578 1.3088
0.2706 -0.6780 1.4564
-0.3800 -0.7616 0.9506
-0.3233 -0.6115 1.2922
0.1652 -1.4395 0.6550
-0.3033 -0.6432 1.2403
-0.0237 0.0183 0.1774
-0.0365 -0.0145 0.1918
-0.0041 -0.0642 0.1967
-0.3181 -0.7620 0.9682
0.3045 -0.7952 1.0643
0.2208 -1.3690 0.9696
0.3337 -0.7568 1.1147
0.0058 -0.7373 1.1884
0.0374 -0.7604 1.2443
0.1680 -0.8150 1.0753
-0.3768 -0.7553 1.0000
-0.0537 -0.7605 1.0055
0.1579 -0.7755 0.9612
0.6111 -1.4338 1.0132
0.0017 -0.7486 0.9411
0.3443 -0.6840 1.3753
-0.1120 -0.7097 0.9565
0.0689 -0.7308 1.2353
-0.3799 -0.7532 1.2483
-0.3801 -1.4898 1.0181
-0.3148 -1.4120 0.9732
-0.1639 -0.7056 1.1794
0.1925 -0.7664 0.9681
0.3476 -0.7451 0.9266
-0.0822 -0.7497 0.9189
0.0395 -0.7608 1.1791
-0.0242 -0.7522 1.1609
0.2292 -0.7607 1.2408
0.0039 -0.8101 1.0676
-0.2545 -0.7613 1.1468
0.1834 -0.8413 1.1790
-0.0551 -0.7524 1.1318
0.3712 -1.4015 0.8577
-0.3760 -0.7423 1.5273
0.1474 -0.7337 1.4998
0.1057 -0.7242 1.5269
0.2440 -0.6925 1.1644
0.3694 -0.6963 1.3547
-0.3249 -0.7100 1.2886
0.4069 -0.9884 0.8034
0.2775 -0.7264 1.4901
-0.3728 -0.7291 1.2916
-0.0836 -0.7421 1.2177
0.3072 -0.6949 1.1674
0.3597 -0.7647 1.0196
0.2778 -1.4886 0.8188
-0.2126 -0.7531 1.0989
0.5756 -1.5246 1.0699
-0.1369 -0.7235 1.0575
-0.3395 -0.7556 1.2140
-0.3480 -0.7626 1.0443
-0.1382 -1.5183 0.7381
-0.3800 -0.7609 1.0815
-0.1714 -0.7235 1.2871
-0.0439 0.0235 0.1681
0.1595 -0.7573 1.5229
0.1329 -0.7873 1.1547
0.2971 -0.7799 0.9567
-0.0542 -0.7310 1.2617
-0.2764 -0.7451 1.0873
-0.1873 -0.7701 1.0347
0.2556 -0.7386 1.0076
-0.3001 -0.7506 1.1727
-0.3039 -0.7345 1.0406
-0.3179 -0.7651 1.0199
-0.0897 -0.7717 1.1256
0.3819 -0.7639 1.0690
0.2478 -0.8435 1.1107
0.0998 -0.7913 1.1488
0.5253 -1.4376 0.7613
-0.3480 -0.7299 0.9371
0.8171 -0.7812 2.3780
-0.1257 -0.7386 1.4842
0.9730 -0.7407 2.5751
0.9019 -0.6418 2.4512
-0.7636 -0.6927 2.3504
0.6389 -1.4333 1.1095
0.1060 -0.7219 1.3200
-0.0283 -0.7455 1.3665
-0.0878 -0.7300 1.3411
-0.2991 -0.7265 1.2790
0.0395 -0.7343 1.3444
0.0033 -0.7781 0.9941
-0.1200 -0.7833 0.9511
0.1632 -0.7596 1.0714
0.1882 -0.7404 1.1457
0.2004 -0.7777 1.0593
0.0050 -0.7595 1.0871
0.3290 -0.7739 1.0495
-1.1689 -0.8296 2.6934
-0.8468 -0.7238 2.4021
0.2638 -0.7669 1.2151
0.2954 -0.7588 1.2362
0.1004 -0.6780 1.3360
0.3706 -0.7497 1.4113

