0.0178 -0.0531 0.0201
0.0106 -0.1348 0.0436
0.0080 -0.0139 0.0176
0.0181 -0.0462 0.0322
0.0285 -0.0600 0.0180
0.0027 -0.0129 0.0082
0.0072 -0.0113 0.0077
-0.1574 -0.5657 0.1564
0.0050 -0.0093 0.0048
0.0047 -0.0459 0.0042
0.0349 -0.1459 0.0267
0.1029 -0.3124 0.2178
0.0993 -0.3475 0.1861
0.0349 -0.0813 0.0288
0.0876 -0.2560 0.1630
0.0972 -0.2579 0.0575
0.0929 -0.2541 0.0569
0.1895 -0.5512 0.3471
0.0096 -0.0268 0.0339
-0.0248 -1.1256 0.2110
0.0280 -0.3995 0.0763
0.0504 -1.2429 0.8634
0.0652 -0.6091 -0.2306
0.1293 -0.6548 0.4001
0.0863 -0.7521 0.0802
0.3248 -1.3638 0.4135
-0.0443 -0.7625 0.6102
0.0137 -0.1149 0.0167
0.0331 -0.1537 0.0472
-0.0345 -0.1502 0.1186
-0.3820 -1.1822 0.4406
-0.4135 -1.0475 0.4211
-0.4246 -1.3496 0.4800
-0.3996 -1.2646 0.4233
-0.0114 -1.1999 0.8060
0.2619 -1.4820 -0.1241
0.2981 -1.3543 1.0538
-0.0446 -1.2652 0.7711
0.2030 -1.1626 1.0483
-0.0265 -1.3049 1.0412
0.3932 -1.5039 -0.0463
0.0068 -0.0120 0.0172
0.2995 -1.3399 -0.1016
-0.2061 -1.3979 -0.1682
-0.1152 -1.4604 -0.2888
-0.2639 -1.1158 -0.1518
-0.0334 -1.2075 -0.1331
-0.0991 -1.3245 1.0819
-0.0971 -1.3707 1.0894
-0.1107 -1.3651 -0.2006
-0.1209 -1.2231 -0.2130
-0.3487 -1.1214 0.4211
-0.4726 -1.3815 0.6343
-0.1001 -1.2093 -0.2521
-0.1104 -1.3926 -0.1765
-0.3489 -1.2353 0.7105
-0.3866 -1.1140 0.4348
-0.0290 -1.1146 0.9927
-0.4360 -1.1033 0.3410
-0.1450 -1.4197 0.7162
-0.2696 -0.8334 0.4465
0.0275 -1.3200 -0.1995
0.1992 -1.3145 0.0074
-0.2245 -1.1855 0.8900
-0.5019 -1.3654 0.5118
0.1896 -1.0736 -0.0407
-0.0005 -1.1573 0.9414
-0.2431 -1.0825 -0.1718
-0.1270 -1.3983 -0.1796
-0.4455 -1.3980 0.4340
0.1407 -1.1252 0.4337
-0.0918 -1.3351 -0.0122
-0.5942 -1.3180 0.3558
-0.0107 -0.8902 0.2121
0.0149 -1.3304 0.0282
0.1383 -1.0868 0.5486
0.2202 -1.1433 0.4240
0.1297 -1.4402 0.2787
-0.1338 -0.7853 0.5334
-0.0201 -0.8262 0.8941
0.0506 -0.1487 0.0981
0.0913 -0.2853 0.2171
0.2074 -0.6083 0.4476
0.1383 -1.0798 0.3381
0.0801 -0.4823 0.2363
-0.0239 -0.2106 0.0943
-0.0527 -0.2190 0.2092
-0.0576 -1.1341 0.9959
0.3303 -1.2663 1.0358
-0.2628 -1.2121 0.9766
-0.2275 -1.2322 0.9978
-0.2152 -1.1769 1.2113
-0.3738 -1.2376 0.8803
-0.3661 -1.2282 0.8403
-0.2421 -0.9983 0.9548
-0.2184 -1.2683 1.2583
-0.1179 -1.0568 1.1869
-0.1903 -1.1957 1.1306
-0.0789 -0.8289 0.9511
-0.0729 -0.6185 0.7461
-0.0476 -0.5684 0.7126
0.2076 -1.2723 -0.0390
0.4833 -1.2341 0.4201
0.2379 -1.1967 0.2166
-0.0432 -1.3359 0.8377
0.1680 -1.4360 0.2310
-0.2406 -1.4368 0.8053
-0.0525 -1.4565 0.7410
-0.2956 -1.0746 0.8947
-0.4599 -1.2837 0.6999
0.3320 -1.1706 0.2127
0.2173 -0.9571 0.4241
-0.0446 -1.1472 0.6620
0.2297 -1.5389 0.0000
-0.4370 -1.3188 0.4555
-0.6076 -1.2222 0.4671
-0.4017 -0.9064 0.4607
-0.3982 -1.1520 1.0176
-0.4542 -1.3279 0.9583
-0.4411 -1.3830 1.0424
-0.2517 -1.1448 1.2604
-0.3797 -1.2552 0.9546
0.3969 -1.1595 0.4003
-0.3255 -1.1470 0.8809
-0.3946 -1.0753 0.2994
-0.0714 -1.2181 1.0153
0.1916 -1.2765 0.2817
-0.1397 -1.3331 0.6378
0.1378 -1.0527 1.2724
-0.0646 -1.3935 -0.1307
0.2576 -1.0642 1.2293
-0.0434 -1.3810 -0.0045
-0.6028 -1.4912 0.5456
0.1235 -1.3014 1.0971
-0.1722 -1.1496 0.9816
-0.2421 -1.2233 0.6809
-0.4705 -1.4766 1.3120
0.3655 -1.3826 -0.0487
0.2904 -1.1283 0.1550
0.0112 -1.5535 -0.0163
0.1350 -1.3567 0.7279
0.0172 -1.1472 0.9427
-0.2738 -1.2958 0.6007
-0.3827 -1.4026 0.4285
-0.3622 -1.3783 0.9670
-0.0514 -1.1980 0.7971
-0.4597 -1.4759 1.2544
-0.0552 -1.1875 0.7503
-0.3111 -0.6902 0.8459
-0.3762 -1.1682 1.3086
-0.2443 -0.7155 0.9476
-0.2340 -0.6765 0.8708
-0.4200 -1.4641 1.3448
-0.1392 -1.0283 1.0477
0.0255 -0.5650 0.7819
0.1335 -0.9178 1.1254
0.2334 -1.1649 1.1219
-0.1413 -0.9763 0.8304
0.3336 -1.2880 0.5426
-0.5694 -1.1670 0.4952
-0.4513 -1.0681 0.8332
-0.5084 -1.2537 0.4252
0.1820 -1.1979 1.0525
0.0366 -1.3725 0.8457
0.2206 -1.2640 0.2538
-0.3964 -1.4322 0.6057
0.1765 -0.9747 1.0884
0.0855 -0.4887 0.7259
-0.0884 -1.3163 1.2283
-0.2079 -0.6629 0.8910
0.0734 -0.1532 0.0152
0.1415 -0.3148 0.0421
-0.5278 -1.3126 0.5231
-0.3844 -0.7936 0.8224
-0.2450 -0.5368 0.8511
-0.2796 -1.1169 1.0876
-0.2057 -1.4269 1.2186
0.3197 -1.2122 0.9997
0.1765 -1.0310 0.9526
-0.4034 -1.1923 0.6489
0.4245 -1.1119 0.4141
-0.0790 -1.2072 0.2953
0.3220 -1.2850 0.9939
0.3385 -1.2817 0.1631
-0.0435 -1.2499 0.6435
0.2939 -1.2665 0.4774
-0.0506 -1.1810 0.9493
0.2920 -1.3122 0.4515
-0.2334 -1.3060 0.9488
-0.1657 -1.2280 0.8601
-0.0856 -1.1764 0.7672
-0.3921 -0.6571 0.6553
-0.3827 -0.7739 0.6666
0.3628 -1.1632 0.9776
0.2976 -1.2387 1.0105
-0.3478 -1.2018 0.8497
-0.3403 -1.1420 1.2326
0.1998 -0.9866 0.9687
-0.1469 -1.0265 0.9474
-0.1397 -1.1543 1.1914
-0.0951 -1.3504 1.2406
-0.0601 -1.2182 0.7096
0.0007 -1.1971 0.9938
0.0146 -1.1010 1.1092
-0.0760 -1.1336 0.4035
-0.1346 -0.9975 0.8498
-0.2186 -1.2397 0.6357
0.0559 -1.2969 0.2542
-0.0182 -1.2272 0.7686
-0.0953 -1.2842 0.6522
-0.3399 -1.1662 0.4910
-0.2453 -0.4832 0.8676
-0.2586 -0.5328 0.8285
-0.2517 -0.4517 0.7830
0.3100 -0.8961 1.1359
0.3413 -1.2092 1.0585
-0.2997 -0.1787 0.4711
0.2812 -1.1353 0.9836
-0.4135 -1.1945 0.3801
0.1748 -1.4000 1.4750
-0.2897 -0.6525 0.8770
-0.3305 -1.1376 0.9993
-0.2762 -1.2311 1.0451
-0.2521 -1.1526 1.0336
-0.0678 -0.6963 0.8625
-0.1389 -1.1405 0.8963
-0.1380 -1.0689 0.9444
-0.1214 -1.1909 0.9506
-0.2361 -1.2477 0.7087
-0.3458 -1.1936 0.3636
0.1945 -1.0484 1.2221
0.1300 -1.0258 0.9694
-0.1445 -0.5961 0.9264
-0.3443 -0.9862 0.8725
-0.3892 -1.2107 0.5048
-0.4525 -0.6711 0.4250
-0.3982 -1.2277 0.4374
-0.4248 -1.0445 0.7985
-0.0466 -1.1446 1.0903
-0.3731 -0.2349 0.6012
-0.1978 -1.0186 0.9866
-0.2946 -0.6432 0.8752
-0.2622 -0.7224 0.7768
0.3629 -0.9539 0.3602
0.3673 -1.2462 0.4823
0.2656 -1.2947 0.3854
-0.2945 -1.2567 0.8773
-0.4045 -0.6621 0.6469
0.3804 -1.2520 1.0502
-0.2096 -1.2978 1.2818
-0.3062 -1.3011 1.0859
-0.2623 -0.4783 0.7998
-0.2257 -0.7228 0.9606
-0.2596 -0.4567 0.8068
-0.3582 -0.6095 0.6246
-0.1532 -0.6183 0.7940
-0.2112 -0.2987 0.8278
-0.2213 -0.7235 0.8758
-0.2320 -0.7191 0.9124
-0.4061 -0.7361 0.6774
-0.4181 -0.3355 0.6916
-0.0712 -0.9854 1.0690
-0.3442 -0.1168 0.4811
-0.3386 -0.1727 0.5820
0.0018 -0.1729 0.1988
-0.1883 -0.4913 0.7979
-0.0685 -0.3256 0.4883
-0.1862 -0.5134 0.8294
-0.4167 -0.8087 0.8348
-0.4366 -0.8715 0.8634
0.1788 -1.2791 0.2574
-0.1038 -1.2665 0.6959
-0.2754 -0.8059 1.0321
-0.4094 -1.1952 0.5762
0.3363 -1.2304 0.5447
0.0852 -0.5275 0.7433
-0.0588 -0.7948 0.9571
-0.1359 -0.8327 1.0128
-0.3886 -0.7723 0.7988
-0.0099 -1.1268 0.9559
-0.2889 -1.0230 1.1361
-0.3812 -0.5869 0.4086
-0.3614 -1.1983 0.4639
0.2331 -1.0587 0.9872
-0.2027 -1.0853 1.0376
-0.1741 -1.0451 0.8860
-0.0186 -1.3660 0.2906
-0.5952 -1.2987 0.3110
-0.2541 -0.5078 0.8547
0.1497 -1.3529 0.2177
-0.5143 -1.1355 0.2791
0.1800 -1.3538 0.0174
0.4654 -1.1230 0.3898
-0.0040 -1.2983 0.3929
-0.0835 -0.2342 0.3996
-0.2901 -0.6426 0.8844
-0.2910 -0.4464 0.1194
-0.2677 -0.1777 0.3382
-0.4483 -0.6500 0.5699
-0.4245 -0.5842 0.6546
-0.3915 -0.8925 0.4179
-0.4029 -1.1198 0.3995
-0.3143 -0.5903 0.7714
-0.1473 -0.6464 0.8241
-0.0573 -0.4491 0.2058
-0.2564 -0.6366 0.9630
0.0311 -0.5237 0.7437
-0.2195 -0.4373 0.8264
-0.3719 -0.2162 0.5737
-0.5092 -0.3444 0.6540
-0.4925 -0.2751 0.6389
-0.5035 -0.3477 0.6455
-0.4846 -0.2557 0.6469
-0.4376 -0.3234 0.7014
-0.4262 -0.2551 0.6942
-0.3152 -0.4470 0.6508
-0.4040 -0.1158 0.4058
-0.3457 -0.1227 0.4708
-0.4013 -0.1702 0.4605
-0.3487 -0.1668 0.6103
-0.2879 -0.2163 0.4201
-0.3970 -0.0791 0.3509
-0.4133 -0.1874 0.4046
-0.3948 -0.0703 0.3386
-0.4035 -0.0926 0.3522
-0.3665 -0.1142 0.4231
-0.3740 -0.1604 0.5614
-0.3565 -0.1215 0.4781
-0.3080 -0.0248 0.2624
0.0161 -1.2078 0.1334
0.3436 -1.1995 1.0114
0.2438 -1.4185 0.3390
-0.4979 -0.3785 0.6650
-0.2514 -0.8442 0.9666
-0.1427 -1.2449 1.0774
0.2511 -1.4046 0.1266
-0.4613 -1.4674 0.5195
-0.2831 -0.1203 0.1700
-0.3465 -0.1838 0.1717
-0.3138 0.0192 0.1844
-0.6885 -0.7946 0.3217
-1.4599 -1.1117 0.3606
-0.7864 -1.4077 -0.2763
-0.9044 -0.4304 0.3104
-0.5227 -0.4369 0.1342
-0.3817 -1.1399 0.3727
-1.0922 -1.4794 -0.0345
-0.5481 -0.7052 0.3819
-1.4049 -0.9798 0.1799
-1.6419 -0.8718 0.2375
-1.8038 -0.9460 -0.0127
-0.7542 -1.4415 0.2638
-0.6537 -1.2360 0.2914
-0.9154 -1.1918 0.2299
-1.2370 -1.3995 0.0773
-0.9415 -1.3781 -0.2611
-1.7157 -1.1040 0.0414
-0.6938 -0.8184 0.3479
-0.6762 -0.6818 0.3317
-0.6844 -0.6374 0.3076
-0.6447 -0.7055 0.3691
-0.5220 -0.1485 0.2679
-0.5858 -0.7387 0.4580
-0.4970 -0.1892 0.3042
-0.6540 -0.5914 -0.0174
-1.8006 -1.1899 1.2313
-0.4900 -0.2226 0.3128
-0.3699 0.0760 0.1592
-0.5758 -0.6341 0.3151
-0.5038 -1.5105 0.3254
-1.8185 -1.0989 0.5189
-1.9555 -1.2826 0.9205
-0.6363 -1.2077 0.2802
-1.5595 -0.9529 -0.0589
-1.7996 -1.3490 -0.1970
-1.4637 -1.1202 0.2609
-1.4800 -1.0887 0.3626
-0.4347 -1.1556 0.4117
-0.7487 -0.8682 -0.1068
-0.4961 -1.2047 0.4461
-0.4347 -1.2825 0.0144
-1.7070 -0.9262 0.3577
-0.6697 -0.8028 0.3278
-0.5113 -1.3825 -0.0399
-0.9443 -1.3426 -0.1652
-0.5636 -1.2514 0.2207
-0.5375 -1.2188 0.2403
-0.7088 -1.3063 -0.0646
-1.1262 -1.2325 -0.0369
-0.6615 -1.2480 0.0117
-1.5647 -1.2684 0.9653
-0.4330 -1.5824 0.6881
-1.3384 -0.9295 0.8728
-0.9583 -0.8108 0.2233
-0.3646 -1.2830 0.3481
-0.5196 -1.2609 0.3869
-0.7957 -1.2225 -0.3429
-0.8651 -0.6642 0.2581
-0.6700 -1.3039 0.2457
-0.6028 -1.3304 -0.0327
-0.4904 -1.2756 -0.0690
-1.5995 -0.8831 0.0880
-0.4269 -1.2600 -0.0058
-0.4363 -1.3044 0.0660
-0.3813 -1.1589 0.4119
-0.5070 -0.2484 0.2661
-0.4092 -1.1730 0.3577
-0.7888 -1.1028 0.2469
-0.6957 -0.7556 0.3281
-0.8581 -0.5488 0.3167
-0.4127 -1.2567 0.4467
-0.6738 -1.1675 -0.2342
-0.8960 -1.4312 -0.4255
-0.6295 -0.8750 0.3863
-2.0517 -1.1998 0.8403
-1.6860 -1.1386 -0.0739
-1.4351 -1.1102 0.1836
-1.5207 -0.9242 -0.0190
-1.4350 -1.1888 0.3954
-0.5408 -1.1798 -0.0013
-1.6799 -0.9689 0.2374
-1.7266 -0.9105 0.1450
-0.6836 -0.6736 0.3286
-0.4062 -1.3489 0.0404
-1.4996 -0.6362 -0.0124
-1.7613 -0.9682 0.0403
-0.9155 -1.0951 -0.0376
-0.4061 -1.2401 -0.0782
-0.9041 -1.2337 0.0215
-1.1029 -1.3156 0.1427
-0.5812 -0.8107 0.3348
-0.6558 -1.3760 0.0153
-0.4725 -1.3343 0.6912
-0.4216 -1.3018 0.0350
-0.3738 -1.2830 0.3640
-1.8008 -1.1761 0.6923
-0.6256 -1.3183 0.1136
-1.4495 -1.1614 0.2629
-0.5308 -1.3538 -0.0200
-0.9574 -1.2716 -0.0130
-1.0175 -1.2196 -0.0756
-1.4440 -1.2774 -0.1372
-0.9130 -1.2312 -0.3719
-1.5371 -0.8481 0.1372
-1.4313 -0.9390 0.1845
-1.8920 -1.0718 0.4435
-0.6106 -0.8142 0.3716
-1.9288 -0.9455 -0.1207
-1.4954 -0.8424 0.2179
-0.6111 -1.2525 -0.1668
-0.3853 -1.2573 -0.0196
-1.0415 -1.2196 -0.4339
-0.5175 -1.1373 0.3803
-2.2681 -1.1930 0.7148
-2.1622 -1.2701 0.5451
-1.7696 -0.9932 0.2641
-1.4972 -1.2289 0.1348
-0.3417 -1.2810 -0.0685
-1.9421 -1.0621 -0.0159
-1.8617 -1.0007 -0.1313
-1.0355 -1.2376 -0.1021
-0.4892 -0.1565 0.3167
-0.5921 -0.8514 0.3606
-0.5084 -0.2970 0.2744
-0.5837 -0.9248 0.4655
-0.6544 -0.8435 0.3817
-0.5527 -0.5960 0.3857
-0.5388 -0.5984 0.4122
-0.6660 -0.9949 0.6420
-0.5819 -0.4799 0.3478
-0.6290 -0.5598 0.3794
-1.5249 -1.0061 0.2846
-0.8628 -1.1919 0.3389
-0.8383 -0.5010 0.3244
-1.0151 -0.4794 0.1509
-1.5631 -0.9663 0.2717
-0.6675 -0.6137 0.2758
-0.6626 -0.7815 0.2805
-1.9477 -1.1095 0.8416
-0.6307 -1.0876 0.3048
-0.3420 -1.1699 0.4951
-0.4703 -1.2748 0.2698
-0.4304 -1.2542 -0.0769
-0.8636 -0.5542 0.3575
-1.1904 -1.2539 0.3319
-1.1106 -1.1853 -0.0634
-1.7515 -1.0709 -0.0538
-1.6440 -0.9607 -0.0117
-0.3049 -1.2420 -0.2329
-1.5703 -1.0237 0.2774
-1.4742 -1.0770 0.3427
-1.4636 -1.0706 0.3839
-1.5005 -1.0837 0.4270
-0.8476 -1.2734 0.3299
-0.4428 -1.2090 0.3989
-0.3857 -1.2126 0.4002
-0.3198 -1.2215 -0.2293
-0.6313 -0.7809 0.3560
-0.5558 -1.2504 -0.2189
-0.3222 -1.1848 -0.4522
-0.3722 -1.2266 -0.2221
-0.5445 -1.2628 0.4409
-0.4588 -1.2374 -0.2151
-0.8945 -1.2902 -0.4722
-0.3762 -1.2369 -0.1936
-1.4608 -1.1874 -0.1071
-0.6991 -1.2700 -0.4356
-0.5335 -1.2667 0.3896
-0.3298 -1.2283 -0.4288
-0.8799 -1.2719 -0.5042
-0.5319 -1.2419 -0.4083
-0.3816 -1.2521 -0.1705
-1.2001 -1.2913 0.4301
-1.0803 -1.1757 -0.0690
-1.5620 -1.1509 -0.0512
-0.5900 -1.2532 -0.3691
-0.6285 -0.6083 0.3474
-0.4331 -1.2991 -0.3701
-0.3682 -1.2207 -0.1443
-1.2323 -1.2296 -0.3383
-0.5565 -1.2786 0.2247
-0.2881 -1.2382 -0.1473
-0.3896 -1.2208 -0.1368
-0.5233 -1.2080 0.1655
-0.2825 -1.1640 -0.1189
-0.5328 -1.1802 0.1379
-0.9328 -1.2224 -0.0398
-0.3916 -1.2365 -0.2369
-1.9791 -1.0621 -0.1976
-1.6514 -0.9358 0.2884
-1.9420 -1.0087 -0.1871
-0.2847 -1.2206 -0.0848
-0.2714 -1.2065 0.0387
-1.9816 -0.9942 -0.1422
-0.5838 -1.2789 -0.2703
-1.9586 -1.0373 -0.1191
-0.2966 -1.2022 -0.2623
-1.2369 -1.0962 -0.1956
-0.8644 -1.2060 -0.2249
-0.2901 -1.2135 -0.0617
-0.8483 -1.1917 0.0304
-0.4941 -1.2079 0.1244
-1.3457 -1.2668 -0.2369
-0.4692 -1.3079 0.5876
-0.5748 -0.8230 0.3553
-0.4939 -0.2769 0.0930
-1.4617 -1.1910 0.4609
-0.7373 -0.2897 0.1016
-0.3753 -0.9190 -0.3115
-0.4987 -1.2334 -0.4208
-1.0549 -1.3880 0.1257
-0.3326 -1.2223 -0.0010
-0.5301 -1.1569 -0.5253
-0.5532 -0.6877 0.3172
-0.5211 -0.2820 0.0569
-0.5858 -1.1662 -0.2194
-0.7262 -1.2906 -0.0242
-0.9633 -0.8163 0.2191
-0.8014 -0.4946 0.2720
-1.0102 -1.1230 -0.3754
-1.5448 -1.0403 0.0864
-0.6645 -1.1987 -0.5600
-0.5145 -1.2429 -0.4876
-0.7363 -1.2568 -0.4939
-0.6584 -1.1552 -0.4547
-0.6182 -1.1857 -0.4099
-2.0151 -0.9399 -0.2119
-1.8024 -0.9949 -0.0591
-1.6879 -0.9104 0.0002
-2.3929 -1.1709 0.1310
-1.4774 -0.8117 0.1183
-1.4232 -1.1594 0.1631
-1.5724 -1.1438 0.3450
-0.9600 -1.2218 -0.5689
-1.3789 -1.2463 -0.5940
-0.6787 -1.1955 -0.4915
-0.8168 -1.2011 -0.4944
-1.5483 -0.8070 0.2342
-1.5360 -0.8830 0.2803
-0.7998 -1.3355 0.3919
-1.0302 -1.2532 0.5119
-0.5170 -1.2362 0.1293
-0.5375 -1.2446 0.1272
-1.4780 -1.2691 0.5926
-1.9782 -1.0618 0.1196
-0.3966 -1.2058 0.0341
-1.5983 -1.2555 -0.3511
-0.6735 -1.1621 0.3259
-2.0001 -0.9180 -0.2246
-0.7420 -1.2025 -0.5220
-1.4724 -0.9820 0.3053
-2.5188 -1.3122 0.7755
-0.7220 -0.7149 0.3310
-1.1545 -1.2314 -0.7065
-0.7013 -1.1692 -0.6051
-1.1235 -1.1797 -0.6078
-0.7003 -0.8903 0.3083
-1.6861 -0.9735 0.0374
-1.4596 -0.8630 0.0086
-0.6799 -1.1871 -0.0157
-1.3609 -1.2621 -0.1295
-0.9498 -1.1583 0.0196
-1.9777 -1.0839 -0.7344
-1.4276 -0.9336 0.2038
-1.9334 -1.0646 -0.0197
-0.7047 -1.1244 -0.3203
-0.9676 -1.1078 -0.5769
-2.2806 -1.0803 0.0798
-0.7232 -1.2895 0.3180
-1.3216 -1.1885 0.4577
-0.8165 -1.1843 0.3434
-1.9315 -1.0884 -0.8020
-1.3697 -1.2313 -0.7211
-1.3637 -1.1552 -0.5703
-1.3259 -0.9071 0.2023
-1.4815 -0.9089 0.2318
-1.4217 -1.1173 0.2243
-0.9438 -1.2508 -0.3723
-1.3375 -1.2364 -0.3794
-1.4881 -1.2230 -0.0555
-1.5520 -1.1678 -0.2036
-1.2307 -1.1387 -0.1834
-1.0106 -1.2047 -0.6699
-1.3884 -1.1749 0.2404
-1.3328 -1.1267 -0.1549
-1.3057 -1.2160 -0.2329
-1.2218 -1.1651 -0.2347
-0.8972 -1.2086 -0.3591
-0.8005 -1.1922 -0.3743
-0.7470 -1.0439 0.2915
-0.8004 -1.1532 0.2371
-1.4104 -1.1976 0.4512
-1.4625 -1.0914 0.4404
-1.3414 -0.9386 0.2687
-1.4489 -0.9018 0.0300
-1.2038 -1.0014 -0.0940
-1.5052 -0.3687 -0.1341
-1.6547 -0.4162 -0.2665
-0.9395 -0.9648 -0.3178
-1.6557 -0.4319 -0.4006
-1.8051 -0.4940 -0.4917
-1.5876 -0.4421 -0.5224
-1.6493 -0.4521 -0.5511
-1.9814 -1.0871 -0.8270
-1.6425 -0.4233 -0.0872
-1.8828 -0.4606 -0.1318
-1.5564 -0.9722 -0.0957
-1.8370 -0.4622 -0.1809
-1.7704 -0.4321 -0.3526
-1.4686 -0.3788 -0.4390
-1.5760 -0.3702 -0.5683
-1.4289 -1.0273 0.3445
-1.4313 -1.0824 0.2483
-1.8511 -0.3575 0.0842
-2.0763 -0.4455 -0.2207
-1.6317 -0.4318 -0.2684
-1.8157 -0.4240 -0.3170
-1.5598 -0.4473 -0.3145
-1.7873 -0.5476 -0.6896
-1.9334 -0.4795 -0.7302
-1.7503 -0.5252 -0.7139
-1.8648 -0.3646 0.2423
-1.8817 -0.3774 0.1268
-2.0164 -0.4971 -0.2028
-1.5174 -0.3738 -0.2169
-1.4881 -0.3690 -0.2966
-1.9921 -0.5151 -0.4508
-0.8074 -0.3791 -0.0977
-1.9528 -1.0603 -0.8630
-2.5190 -0.3994 0.3086
-2.4396 -0.4042 0.2820
-1.6275 -0.9379 0.2134
-2.2557 -0.4063 0.1346
-2.2010 -0.4104 0.1059
-2.3330 -0.4180 0.1046
-1.4162 -1.0852 0.1571
-1.7270 -0.9434 0.0121
-1.5553 -1.1939 0.0431
-1.0689 -1.1230 -0.0570
-1.6484 -1.0979 -0.0783
-1.4631 -0.9700 0.2014
-1.7794 -0.3217 0.2501
-1.4053 -0.4043 -0.7355
-1.4797 -0.3713 -0.2968
-1.7255 -0.4447 -0.3638
-0.7982 -1.2707 0.1713
-1.9200 -0.3671 0.2629
-1.8841 -0.3082 0.2250
-1.3731 -1.0023 0.2964
-1.5638 -0.8562 -0.0004
-1.6061 -0.4960 -0.7891
-1.7619 -0.4975 -0.8737
-0.8318 -1.1706 -0.4324
-1.0729 -1.0671 0.3415
-1.4369 -1.1365 0.3586
-2.5244 -0.5927 -0.1904
-1.1101 -1.0716 -0.0047
-1.6401 -1.1963 -0.1958
-1.8540 -0.4353 -0.0992
-1.6920 -0.4434 -0.3249
-1.5478 -0.4556 -0.5694
-1.6581 -0.4724 -0.8597
-1.6033 -0.4669 -0.7915
-1.7887 -0.4832 -0.8462
-2.0328 -0.4444 -0.1647
-1.9038 -0.4589 -0.4642
-1.8313 -0.4860 -0.8416
-1.5671 -0.9157 0.2706
-1.7743 -0.4355 -0.1130
-1.0105 -1.2230 -0.6202
-1.5855 -0.4590 -0.7479
-1.4679 -1.1357 -1.0152
-1.6931 -0.4169 -0.1539
-1.4311 -0.7493 0.0956

