0.0223 -0.5876 0.3404
0.1134 -0.8593 0.3509
0.0805 -0.7254 0.1184
0.0113 -0.9363 0.6928
-0.0177 -0.8876 0.3463
-0.0727 -2.5363 0.6766
0.1628 -1.0065 0.4308
0.1329 -0.6424 0.1176
-0.1619 -0.7688 0.3333
-1.2012 -4.8248 0.6497
-0.5215 -2.7122 1.5923
-0.0066 -0.6380 0.2200
0.2217 -0.7528 -0.0249
1.5230 -3.9193 0.0698
-0.8888 -3.5215 -0.0874
-0.1824 -1.0709 0.1366
0.4599 -1.0301 0.2825
-1.4151 -4.7290 2.7372
0.2274 -0.6032 0.2086
0.1844 -0.7940 0.2074
0.2151 -3.8339 1.1767
0.2483 -0.7117 0.5895
0.2926 -2.3259 1.6295
0.6104 -4.2345 1.2673
0.1676 -1.1168 0.3314
0.1698 -2.0488 0.3168
1.3626 -3.7709 0.3901
0.3362 -0.7872 0.3060
0.4625 -0.8671 0.7269
0.2886 -0.6891 0.2734
1.1391 -2.2907 0.9442
-0.1237 -0.8729 0.3689
-0.3290 -2.0700 0.2705
0.8788 -2.8072 1.0437
0.2423 -0.8528 0.3959
-0.0715 -0.7824 0.2266
-0.0421 -0.9125 0.4318
-0.1144 -0.7351 0.4239
1.2048 -2.9824 -0.0047
-1.3045 -4.4072 2.5108
0.3209 -3.4271 0.8846
0.3202 -0.6591 0.5587
0.3407 -0.9440 0.2744
0.1844 -0.9363 0.2294
0.2633 -0.5833 0.5683
-0.1262 -0.9655 -0.0227
0.2089 -0.6192 0.5991
0.1488 -0.5997 -0.0473
1.4342 -3.8392 0.0033
0.1833 -0.6026 0.0311
0.1857 -0.6207 0.0209
-0.1196 -0.5338 -0.0074
0.2288 -0.5808 0.0088
-0.1001 -0.9807 0.3703
-0.6502 -1.9125 0.8069
0.3010 -0.5891 0.5626
0.2721 -0.6289 -0.0282
0.2221 -0.8294 0.3646
0.0229 -1.9618 0.5601
0.2946 -0.9953 0.0249
0.3894 -0.7067 0.6809
1.0531 -3.5490 0.2926
-0.2463 -0.9957 0.0828
0.2337 -0.7799 0.4811
0.2367 -0.9211 0.1766
0.2736 -0.6379 0.0530
0.2702 -1.0245 0.5727
0.2058 -0.8643 0.3885
0.3966 -0.9145 0.5126
-0.3023 -0.9125 0.4609
-0.0930 -0.8308 0.2981
-0.0450 -0.8602 0.4688
0.2163 -0.7063 0.6672
0.0608 -0.8017 0.5982
-0.1809 -0.8596 0.6542
0.2397 -0.5231 -0.0347
0.2504 -0.6006 0.5815
-0.2858 -0.6952 0.1164
0.3352 -0.9231 0.1216
-0.0946 -0.8197 0.5423
-0.1451 -0.9961 0.3888
0.2901 -2.9375 1.7519
0.2037 -0.6708 0.1000
0.6410 -2.5699 0.3391
-0.2442 -0.5748 0.3485
-0.1562 -0.7618 0.7079
-0.1673 -0.9951 -0.0395
0.3290 -0.7587 0.5676
-0.3555 -1.0205 0.6253
-0.1477 -0.9904 -0.0348
-0.1875 -1.0220 0.4825
-0.1103 -2.7696 0.3790
-0.0423 -0.8251 0.3279
0.1864 -0.7118 0.6728
0.0177 -0.5413 0.0109
0.0897 -0.6893 0.6535
-0.0063 -0.2267 0.1432
0.2228 -0.8437 0.3995
0.2622 -0.8802 0.3144
0.2553 -1.2232 0.2148
0.2851 -1.8663 0.4114
-0.2257 -0.9635 -0.0422
-0.1110 -0.9914 -0.0229
0.2814 -0.9934 -0.0208
0.2412 -0.7871 0.2848
-0.2576 -0.8209 0.5957
-0.0200 -0.7449 0.1959
-0.0270 -0.8189 0.6137
0.3322 -1.1587 0.1262
0.2201 -0.7844 0.2965
-0.2264 -0.7298 0.3232
-0.1903 -0.5335 -0.0494
0.3142 -1.1313 0.4631
0.4195 -0.9870 0.0283
-0.2011 -0.5561 0.0113
0.2739 -0.7477 0.0685
-0.1567 -0.5470 0.1890
0.0366 -0.9601 0.2191
0.0003 -0.9061 0.3573
-0.1553 -0.9633 0.6476
-0.0330 -0.8766 0.5526
-0.0333 -0.8889 0.4170
0.1639 -0.5981 0.0637
0.8994 -3.0363 0.8690
0.0448 -0.2841 -0.0023
-0.0465 -1.0736 0.1251
-0.2584 -0.6630 0.1441
-0.2245 -0.5620 0.0508
-0.2117 -0.6979 0.0264
0.2969 -0.7517 0.2897
-0.2388 -0.7328 0.3128
-0.1909 -0.7767 0.4412
-0.1705 -0.7237 0.3186
0.8702 -3.3666 0.9408
0.0440 -0.7107 0.0764
0.2300 -0.9306 0.4282
-0.0888 -0.8268 0.1880
0.1280 -0.5197 -0.0352
0.1515 -0.6817 0.0893
0.1190 -0.8800 0.0518
-0.1358 -0.5355 -0.0489
-0.0026 -1.0377 0.3456
-0.0206 -0.7000 0.0849
-0.2532 -2.7468 1.0275
-0.0868 -0.5830 -0.0480
0.0200 -1.2541 0.3252
1.6290 -3.6155 0.0809
-0.1925 -0.5253 0.0791
0.2759 -0.5735 0.1118
0.2434 -0.6145 0.0280
0.3230 -0.7417 0.2253
-0.1865 -0.5093 0.0921
0.2049 -0.6705 0.0605
0.2744 -1.0270 0.2108
-0.1320 -0.6916 0.1117
0.6400 -2.9865 -0.0030
0.1497 -0.6664 0.1049
0.6822 -3.4075 0.6636
0.1220 -0.6135 0.0556
-0.0445 -0.7044 0.0849
-0.0192 -0.5422 -0.0371
0.2669 -0.6238 0.1203
0.3262 -0.6999 0.2005
0.2465 -0.6083 0.0000
0.0067 -0.0754 0.0151
0.0407 -0.5432 -0.0081
0.0533 -0.7674 0.1356
-0.2481 -0.6310 0.2818
0.3089 -0.6325 -0.0384
0.1940 -0.7403 -0.0528
-0.1693 -0.5417 -0.0494
0.1383 -0.5745 0.0168
-0.2558 -0.6465 0.1402
-0.1976 -0.5540 -0.0325
-0.1878 -0.5582 0.0113
0.2945 -0.5812 0.0296
-0.1089 -0.5715 0.0297
0.2768 -0.6239 0.0476
0.3006 -0.7462 -0.0206
-0.0938 -0.5320 -0.0442
-0.1489 -0.5386 -0.0447
0.5441 -0.9069 0.6423
0.4053 -0.7472 0.3114
0.5612 -3.4135 1.4139
-0.3074 -0.9829 0.4575
0.3035 -0.7702 0.2205
-0.1539 -0.7356 0.3514
0.0083 -1.1592 0.4925
-0.2450 -0.5278 0.2968
0.3628 -1.0075 0.5158
0.6559 -1.1333 0.4686
0.4135 -0.8553 0.1844
0.3736 -1.9630 0.3117
0.1744 -0.7306 0.1325
0.3124 -0.5753 0.1866
0.0791 -0.8065 0.0829
-0.4220 -4.1604 1.2915
-0.0595 -1.1234 0.7232
-0.0464 -0.6353 0.3946
0.4205 -1.0557 0.6440
-0.9086 -3.3831 2.3428
-0.1802 -0.8469 0.4479
-0.2833 -0.7728 0.4442
-0.0358 -0.4907 -0.0459
-0.1006 -0.7618 0.2701
0.0238 -1.2071 0.6596
-0.0179 -1.7468 0.5822
-0.1755 -0.8325 0.6606
0.4004 -1.1487 0.4028
0.2223 -0.9191 0.3082
-0.2470 -1.8248 0.9667
-0.0872 -0.1648 0.0770
-0.0281 -0.1714 -0.0052
0.4135 -1.9731 0.9942
-1.2245 -3.5595 -0.0385
-0.3088 -1.0474 0.9116
-0.0502 -0.2020 0.1643
-0.6983 -1.8527 0.5761
0.9483 -3.6320 -0.0089
1.4356 -3.1806 0.8415
-0.8419 -2.1126 0.4027
-0.0387 -1.8252 0.7359
0.8071 -3.4312 0.5204
0.3704 -2.7256 0.1354
1.8096 -3.3461 1.0346
0.1947 -0.5705 0.4834
-0.5345 -1.8730 1.0801
0.8554 -1.8339 1.6469
0.6273 -1.9185 1.7140
0.5988 -3.3645 0.8237
0.4934 -1.8101 1.0286
0.2932 -2.5916 1.0428
-0.1244 -0.2951 0.2245
0.0041 -0.1776 0.1225
-0.0371 -0.0988 0.0575
0.5274 -2.1319 0.1667
-1.3018 -3.3506 2.3421
0.2426 -1.4283 1.2679
1.0886 -2.4410 1.8894
-0.9153 -2.9265 1.2989
0.3759 -3.6319 0.0116
1.6993 -3.8366 0.0019
-0.4670 -3.3116 1.3911
-0.1787 -2.4542 1.7844
0.5982 -1.4859 1.3281
-0.0457 -0.2016 0.0983
-0.7198 -3.8257 -0.0909
-1.0910 -2.9303 1.7146
-0.3343 -2.2991 0.7845
-0.8758 -3.6498 0.3448
-0.2074 -3.7450 -0.0149
-0.5327 -4.2268 -0.0438
0.3295 -3.9120 0.2009
0.0273 -0.6610 0.1501
1.5028 -2.7243 1.8708
1.6485 -3.8980 0.0688
0.2354 -0.5079 0.0528
0.0474 -3.4706 1.4002
1.8336 -3.3768 0.7949
0.0317 -0.1487 0.0417
0.2005 -0.5510 0.0765
-0.2085 -5.1650 0.6547
-0.2304 -0.8926 0.3692
-0.5790 -4.8035 1.8458
-0.5009 -4.9224 1.9661
0.1973 -0.5964 0.4481
0.0596 -1.3807 0.0955
0.2881 -0.5718 0.4515
-0.0800 -0.6284 0.3689
0.0666 -0.4468 0.1610
0.3069 -0.6959 0.3847
1.1568 -2.0450 0.7232
0.4162 -0.7190 0.3981
0.3528 -0.7734 0.2248
0.2556 -0.6012 0.2393
0.3212 -0.6880 0.3661
0.2218 -0.6258 0.2359
-0.0899 -0.7554 0.5119
0.1601 -0.6219 0.2573
0.0097 -0.0687 0.0429
-0.0277 -0.0513 -0.0360
0.5258 -1.1773 0.1341
0.3913 -0.7262 0.6308
0.4794 -0.7354 0.5082
0.4830 -0.7433 0.5451
0.2222 -0.7172 0.6162
0.2726 -0.6272 0.1335
0.3164 -0.7449 0.2158
0.3692 -0.7344 0.6389
1.0759 -2.2253 0.9813
0.1963 -0.6277 0.0305
0.1929 -0.6300 0.0395
0.2308 -0.6030 0.5157
0.1622 -0.5995 0.2608
0.0380 -4.3178 2.1429
0.0849 -0.8186 0.1249
-0.0333 -0.2935 0.1656
0.1984 -0.7321 0.6297
0.2116 -0.6665 0.2166
0.2405 -0.6281 0.2362
0.1609 -0.6089 0.1044
-0.0107 -2.8756 2.0739
0.2846 -0.9053 0.1063
0.3313 -0.7699 0.3968
0.3092 -0.7712 0.4413
-0.1915 -0.4246 0.2669
0.2155 -0.5030 0.0164
0.3329 -0.6806 0.0520
0.2794 -0.6392 0.0337
0.0874 -0.6931 0.1306
0.0833 -0.6495 0.2528
0.1731 -0.8279 0.1736
0.1968 -0.6869 0.0912
-0.0611 -0.2003 0.0746
0.2744 -0.5947 0.3049
0.3977 -0.8354 0.1926
0.1051 -2.2744 1.5971
0.3836 -0.6689 0.4357
0.2469 -0.5878 0.0673
-0.2158 -0.7310 0.0238
0.2912 -0.6518 0.0923
0.2286 -0.6064 0.1926
0.2583 -0.6230 0.0128
0.3128 -0.6728 0.1299
0.0092 -0.6005 0.5096
0.2503 -0.6016 0.1236
0.1015 -0.2679 0.0638
0.0202 -0.2502 0.0363
0.1923 -0.6201 0.0496
0.0477 -0.6051 0.1790
-0.0206 -0.6075 0.2709
0.1346 -0.6422 0.0971
-0.0772 -0.6298 0.2310
0.0881 -0.6569 0.1834
0.1425 -0.6598 0.1111
-0.1082 -1.2069 0.4979
0.1776 -0.6310 0.2431
0.2322 -0.6245 0.0467
-0.1090 -0.5863 0.1978
0.2033 -0.6356 0.0011
-0.0359 -0.5987 0.2468
0.0726 -0.2481 0.0394
-0.0042 -0.6145 0.3281
0.0792 -0.5974 0.3490
0.1827 -0.6347 0.2171
-0.0401 -0.5990 0.5074
-0.0058 -0.7653 0.6400
0.4083 -0.9162 0.2501
0.0662 -0.5947 0.3424
0.2292 -0.6062 0.3254
0.2373 -0.6500 0.3936
0.3371 -0.9070 0.3453
0.1785 -0.6148 0.3712
-0.2021 -0.5850 0.3179
0.2760 -0.6030 0.2098
-0.1962 -0.6284 0.3634
-0.0982 -0.5423 0.2654
-0.0752 -0.5391 0.2915
0.1113 -0.6054 0.3545
0.3619 -0.8608 0.5341
0.2140 -0.5876 0.3093
0.1739 -0.5876 0.3309
-0.1107 -0.7201 0.3456
-0.0652 -0.5515 0.2878
-0.1667 -0.6068 0.3515
0.0679 -1.1360 0.2900
-0.1628 -0.6284 0.1955
0.0499 -0.1511 0.0078
0.1868 -0.6408 -0.0013
-0.0068 -0.6823 0.1959
0.1935 -0.6564 0.0454
0.0466 -0.3891 0.0151
0.0676 -0.6012 0.0240
0.1039 -0.5958 0.0454
0.1205 -0.5759 0.0689
0.0746 -0.5999 0.1467
0.0705 -0.6810 0.0190
0.4089 -1.0180 0.3102
-0.1349 -0.6264 0.3228
0.2663 -0.7859 0.0006
0.2115 -0.6161 0.0740
0.1547 -0.6016 0.2211
0.2343 -0.7882 0.1886
0.1787 -0.6829 -0.0358
0.0092 -0.6596 0.2551
0.3057 -0.8591 0.3843
0.1785 -0.6053 0.1115
0.1728 -0.6281 0.1568
0.1625 -0.5956 0.2099
0.2464 -0.6331 0.0548
0.1027 -0.6210 0.3591
0.2411 -0.6309 0.1822
0.2463 -0.6185 0.2275
-0.1131 -0.8274 0.3362
-0.0864 -0.6430 0.3040
0.2529 -0.6099 0.1738
-0.0091 -0.3703 0.0883
0.2608 -0.6231 0.2169
0.1948 -0.6520 0.0526
0.0023 -0.6202 0.3537
-0.0098 -0.5406 0.2806
-0.1041 -0.8069 0.1269
-0.0090 -0.4788 0.2581
0.0961 -0.6523 0.4468
0.0529 -0.6041 0.0124
0.2309 -0.6420 0.0757
-0.0533 -0.7414 0.1235
0.0681 -1.0091 0.3668
0.1475 -0.6370 0.1154
-0.1130 -0.5948 0.1304
0.2449 -0.6096 0.1747
-0.1015 -0.5982 0.1623
0.2250 -0.7205 -0.0135
0.1880 -0.7640 0.0710
0.1353 -0.7626 0.1564
-0.0327 -0.6156 0.1969
0.0458 -0.7379 0.0304
0.2377 -0.5985 0.0449
0.0418 -0.9747 0.2567
-0.0452 -0.6084 0.1877
0.0097 -0.6851 0.1989
0.0861 -0.7253 -0.0284
0.2414 -0.6084 0.0275
-0.1387 -0.5830 0.2920
0.3160 -0.6632 0.1343
0.2036 -0.6168 0.0230
-0.0366 -0.2931 0.0165
0.0334 -0.2270 0.0711
0.0033 -0.5323 0.3724
-0.0470 -0.4898 0.2816
-0.0346 -0.5348 0.3745
0.0453 -1.0105 0.0494
0.1206 -0.5223 0.2078
0.2158 -0.7242 0.0341
-0.0580 -0.5012 0.2641
-0.1035 -0.5786 0.4029
0.2388 -0.5662 0.2223
-0.1515 -0.5550 0.3071
0.1262 -0.4968 0.1666
0.1501 -0.4551 0.0901
-0.0794 -0.5794 0.2023
0.1514 -0.5488 0.1400
0.2363 -0.5283 0.1922
-0.0662 -0.5329 0.3700
-0.1518 -0.6365 0.2064
-0.0855 -0.6140 0.0699
0.1891 -0.4343 0.2260
0.0664 -0.6762 0.4667
-0.0093 -0.4536 0.3117
-0.1922 -0.5816 0.3147
-0.2414 -0.6435 0.2249
-0.2333 -0.5719 0.3303
0.0150 -0.4159 0.2603
-0.0184 -0.7126 0.5159
-0.3042 -0.9696 0.5403
-0.0405 -0.7263 0.6028
0.0154 -0.6265 0.3423
-0.0332 -0.7579 0.1353
-0.0956 -0.7078 0.2823
-0.0427 -0.6982 0.2158
-0.0967 -0.7235 0.4182
0.0363 -0.6138 0.2875
-0.2144 -0.6709 0.2848
-0.3371 -0.5709 0.3905
-0.1338 -0.6961 0.3686
-0.3751 -0.6784 0.4292
-0.1479 -0.7263 0.3245
-0.3849 -0.7429 0.4236
-0.2082 -0.6971 0.2848
-0.3046 -0.6788 0.0300
-0.4572 -0.8640 0.1748
-0.4172 -0.7678 0.0155
-0.2528 -0.6789 0.3104
-0.4262 -0.7968 0.2519
-0.4342 -0.2753 0.8039
-1.2557 -0.7756 1.5409
-0.1401 -0.7479 0.3255
-0.2355 -0.6844 0.5723
-0.1794 -0.6761 0.3001
-0.1985 -0.7013 0.3286
-0.1826 -0.6925 0.2530
-0.2690 -0.7652 0.4026
-0.2325 -0.6971 0.2892
-0.3180 -0.6861 0.5711
-0.2824 -0.6709 0.4522
-0.4660 -0.8742 0.6326
-0.4202 -0.8384 0.5565
-0.3493 -0.7513 0.3140
-0.4560 -0.8452 0.4707
-0.1704 -0.6757 0.3230
-0.3891 -0.7304 0.5928
-0.4330 -0.8293 0.1670
0.0927 -0.7551 0.2872
-0.1427 -0.6967 0.1831
-1.4835 -1.0853 2.4454
-0.1201 -0.7175 0.1295
-0.2353 -0.6849 0.1051
-0.2303 -0.6885 0.0331
-0.3122 -0.7089 0.0876
-0.3060 -0.6898 0.0078
-0.3643 -0.6920 0.0169
-0.8763 -0.9791 1.5430
-0.6085 -0.9260 1.3934
-0.0522 -0.5578 0.4519
-0.3386 -0.5938 0.4823
-0.1397 -0.0155 0.0328
-0.5033 -0.7275 1.1083
-0.3471 -0.5965 0.3733
-0.2776 -0.4495 0.0008
-0.2853 -0.4690 0.0169
-0.3060 -0.5326 -0.0265
-0.0763 -0.5319 0.1258
0.1668 -0.6346 0.2331
-0.1758 -0.5202 0.2030
0.0342 -0.5896 0.1065
-0.3252 -0.5863 0.3361
-0.2539 -0.5936 0.0327
-0.1212 -0.6213 0.4323
-0.2716 -0.6236 0.0223
-0.0490 -0.6244 0.1875
-0.2656 -0.5777 0.3748
-0.0278 -0.6073 0.3067
0.1168 -0.5990 0.0757
0.0070 -0.2858 -0.0334
-0.0007 -0.7119 0.1911
0.1151 -0.6179 0.0917
0.1010 -0.7347 0.2735
0.1622 -0.6227 0.1737
0.2607 -0.6047 -0.0335
-0.1620 -0.5910 0.0273
0.2408 -0.6969 0.0709
0.0865 -0.7024 0.1972
0.2411 -0.6088 0.0428
0.2330 -0.6774 0.0406
0.0452 -0.6425 0.0094
0.1211 -0.6743 0.0315
0.1666 -0.6710 -0.0349
0.0732 -0.6371 0.2523
0.0534 -0.6469 0.0722
-0.1052 -0.6423 0.2485
-0.1381 -0.5844 -0.0001
0.1474 -0.6127 0.0549
0.1846 -0.7580 0.1230
0.0596 -0.6286 0.1435
0.0133 -0.6427 0.0094
-0.1253 -0.6270 0.0424
-0.0214 -0.5725 0.1988
-0.0273 -0.5765 0.1325
-0.0601 -0.6640 0.0228
0.1350 -0.6128 0.0259
0.2587 -0.6162 0.1535
0.0237 -0.6303 0.2088
-0.1168 -0.6081 -0.0399
0.3316 -0.6483 0.0498
0.1337 -0.6204 0.1630
0.1211 -0.6028 -0.0157
0.3419 -0.7189 0.3385
0.3760 -0.6262 0.3758
0.3694 -0.6534 0.0251
0.3861 -0.6114 0.1584
0.3602 -0.6527 0.0504
0.2847 -0.6363 0.0145
0.0941 -0.0797 0.1261
0.2238 -0.6528 0.1632
0.1702 -0.6644 0.0811
0.1598 -0.6196 0.2254
0.1506 -0.6157 0.2430
0.1286 -0.6851 0.0918
0.1035 -0.6616 0.0190
0.0649 -0.5491 0.1884
-0.0302 -0.7216 0.0260
-0.0286 -0.6001 0.0451
0.0294 -0.6013 -0.0164
0.3397 -0.5534 0.2976
0.3272 -0.5980 0.3772
0.2592 -0.6717 0.4138
0.1643 -0.5963 0.0370
0.1196 -0.6213 0.1423
0.0912 -0.6386 0.1269
0.0303 -0.5912 -0.0302
0.0343 -0.5144 0.2271
-0.0314 -0.6298 0.3189
-0.0577 -0.6604 0.1965
0.1049 -0.5863 0.0940
0.2413 -0.6030 -0.0339
-0.0259 -0.6298 0.2074
-0.1164 -0.3600 0.2342
-0.0425 -0.6623 0.2341
-0.0381 -0.6562 0.0656
-0.0303 -0.6848 0.0900
0.2586 -0.6287 -0.0224
0.1374 -0.5968 -0.0377
0.0345 -0.5946 -0.0005
0.0111 -0.6237 0.0222
0.2841 -0.6404 0.1391
-0.0150 -0.6741 0.2123
-0.0490 -0.5955 0.2468
-0.1803 -0.5829 0.0045
0.4029 -0.7520 0.0268
0.3252 -0.6310 0.2527
0.4422 -0.6822 0.2044
0.9108 -0.9029 1.4723
0.1782 -0.0672 0.0881
0.2381 -0.6181 0.0319
0.2587 -0.6152 0.1207
0.1823 -0.5727 0.0897
0.1478 -0.6021 0.0506
0.1153 -0.5890 0.0899
0.1603 -0.6818 0.2866
0.1859 -0.8164 0.4324
0.1963 -0.6291 0.1871
0.2237 -0.6137 0.3371
0.1310 -0.5686 0.1814
0.0197 -0.6640 0.1779
0.0568 -0.6584 0.2846
0.0400 -0.2199 -0.0083
1.0483 -1.0935 1.6947
0.8114 -0.6160 0.6940
0.8276 -0.6949 1.2494
0.2607 -0.5920 -0.0368
0.2543 -0.5975 0.0418
0.2787 -0.5841 0.1111
0.2699 -0.6384 0.1678
0.4089 -0.6600 -0.0161
0.3345 -0.6000 0.0362
0.2475 -0.6217 0.0437
0.1857 -0.5982 -0.0343
0.1470 -0.5909 0.0173
0.2666 -0.5324 0.2692
0.2756 -0.5931 -0.0328
0.1821 -0.6482 0.1008
0.1945 -0.6324 0.1911
-0.1120 -0.5971 0.2774
1.8368 -1.0792 1.1627
2.0775 -1.3228 1.2401
2.2099 -1.2983 1.6795
0.0025 -0.5691 0.3026
0.1204 -0.5947 -0.0247
0.0783 -0.6100 -0.0296
0.4310 -0.6717 0.1985
0.2619 -0.6334 0.1528
1.0077 -1.1242 1.6840
0.1962 -0.6133 0.1381
0.3093 -0.6723 0.3866
0.2118 -0.6030 0.1970
0.3631 -0.5887 0.5039
0.2270 -0.6127 0.3369
0.6917 -0.9661 1.5001
0.1423 -0.6063 0.2375
0.1563 -0.6651 0.4025
-0.0117 -0.6350 -0.0010
0.0388 -0.5820 0.0870
0.0860 -0.6366 0.2333
0.1194 -0.6375 0.1434
0.3242 -0.6211 0.1686
0.2532 -0.5953 0.0417
0.3038 -0.7057 0.1481
0.2433 -0.6049 0.0345
0.3218 -0.6267 0.2476
0.2216 -0.6877 0.0414
0.3084 -0.5200 0.2837
0.2673 -0.6828 0.1848
0.1761 -0.6250 0.0204
0.1736 -0.6014 0.0096
0.1497 -0.6081 0.0178
0.2573 -0.6305 0.3388
0.1545 -0.6989 0.1150
0.1425 -0.6194 0.1326
0.1518 -0.5981 0.2150
0.1569 -0.6364 0.2652
0.0486 -0.6006 0.0056
0.0933 -0.6349 0.2108
0.0746 -0.6054 0.1601
0.0709 -0.6109 0.2100
0.0100 -0.6148 0.0140
0.0295 -0.6313 0.1738
0.0167 -0.6388 0.1655
0.0717 -0.6944 0.4401
0.0663 -0.7155 0.5100
-0.0027 -0.6204 0.1577
-0.1019 -0.6581 0.2412
-0.1052 -0.6538 0.1540
0.1657 -0.6101 0.0306
0.1551 -0.6259 0.1356
0.1603 -0.6139 0.1670
0.0289 -0.6271 -0.0353
-0.0040 -0.5992 -0.0382
-0.0737 -0.5938 0.1300
-0.0824 -0.6075 0.1578
0.2675 -0.5857 0.0052
0.2713 -0.5870 0.0257
0.2779 -0.6120 0.0556
0.3248 -0.6512 0.1690
0.2755 -0.6118 0.1272
0.2244 -0.5991 0.0080
0.2118 -0.6043 0.0060
0.3658 -0.6171 0.4624
0.2704 -0.6336 0.1671
0.1785 -0.6080 -0.0033
0.2087 -0.6082 0.1109
0.1522 -0.6101 -0.0439
0.1625 -0.6543 0.0213
0.1372 -0.5971 -0.0483
0.1467 -0.5965 -0.0003
0.1265 -0.6196 -0.0398
0.1901 -0.5972 0.2490
0.1385 -0.6186 0.0560
0.1489 -0.5954 0.1336
0.1099 -0.6078 0.0171
0.0915 -0.6098 -0.0215
0.1168 -0.6381 0.0788
0.1677 -0.6209 0.3357
0.1116 -0.6172 0.0942
0.1941 -0.6220 0.4644
0.0741 -0.5972 -0.0059
0.0726 -0.6054 0.0501
0.0742 -0.6089 0.0784
0.0513 -0.6131 -0.0393
0.0652 -0.6236 0.1584
0.0355 -0.6211 -0.0065
0.0580 -0.6116 0.1330
0.0688 -0.6435 0.2578
0.0615 -0.6145 0.2231
0.0369 -0.6126 0.1099
0.0366 -0.6111 0.1346
0.0753 -0.6479 0.4383
0.0525 -0.6232 0.3497
0.0048 -0.6168 0.1260
-0.0101 -0.6118 0.2194
0.0019 -0.6205 0.3310
-0.0299 -0.6081 0.1367
-0.0260 -0.5998 0.1912
-0.0288 -0.6314 0.2311
-0.0377 -0.6300 0.2921
-0.0424 -0.6300 0.2455
-0.0409 -0.6096 0.2095
-0.0471 -0.6470 0.3140
-0.0509 -0.6116 0.2519
-0.0404 -0.6074 0.3848
-0.0831 -0.6307 0.2129
-0.1005 -0.6074 -0.0505
-0.0191 -0.0765 0.0180
-0.1034 -0.6138 0.2045
-0.1131 -0.6078 0.0731
-0.1191 -0.6904 0.4646
-0.1163 -0.6096 0.1682
-0.1571 -0.6929 0.0513
-0.1196 -0.6259 0.2901
-0.1322 -0.6328 0.1016
-0.1188 -0.6383 0.4864
-0.1230 -0.5693 0.2371
-0.1444 -0.6012 -0.0070
-0.1702 -0.6061 0.0216
-0.1816 -0.6064 -0.0046
-0.1826 -0.6151 0.1775
-0.2040 -0.6819 0.4602
-0.1796 -0.5950 0.0386
-0.1858 -0.5894 -0.0032
-0.2245 -0.7027 0.4917
-0.2054 -0.6436 0.2968
-0.1859 -0.5860 0.0185
-0.2418 -0.6913 0.1159
-0.2181 -0.6501 0.4375
0.1038 -0.6298 0.1213
0.1587 -0.6064 -0.0167
0.2613 -0.6430 0.1596
0.1628 -0.5838 -0.0246
0.1384 -0.6211 0.2018
-0.0531 -0.6286 0.5245
-0.1057 -0.6471 0.3716
-0.0994 -0.6317 0.3265
-0.1185 -0.6030 -0.0493
-0.1291 -0.6077 0.4209
-0.1361 -0.6168 0.3201
0.1007 -0.2670 -0.0411
0.1328 -0.6275 -0.0338
0.1743 -0.6751 0.1494
0.2504 -0.6312 0.1126
0.2040 -0.5734 -0.0350
0.0880 -0.5998 0.1100
-0.0769 -0.6126 0.1970
-0.0886 -0.5570 0.1240
-0.0379 -0.6162 0.0532
-0.0534 -0.6023 0.1751
0.0425 -0.6169 0.0723

