0.0550 -0.6650 0.8175
0.0167 -0.7343 0.9156
-0.2323 -0.7523 0.8520
-0.3290 -0.6709 0.9223
-0.3940 -0.7542 0.5111
-0.1537 -0.6819 0.7971
-0.3287 -0.7366 0.8338
-0.2625 -0.7025 0.9218
-0.2120 -0.7582 0.7972
0.0287 -0.6403 0.6070
-0.2465 -0.7409 0.7979
-0.2972 -0.7609 0.8401
-0.1936 -0.7091 0.5530
-0.1393 -0.7155 0.5773
-0.1225 -0.6873 0.9270
-0.2043 -0.7226 0.8605
0.0096 -0.6756 0.5973
-0.0810 -0.0860 0.5051
0.0479 -0.1278 0.1499
0.0136 -0.0293 0.0417
-0.1030 -0.0663 0.2183
-0.0319 -0.0444 0.1130
-0.0106 -0.0234 0.0738
0.0416 0.0092 0.1323
-0.0284 -0.0403 0.0920
0.0057 0.0063 0.0745
0.0383 -0.0101 0.0894
-0.0037 -0.0058 0.1387
0.0446 0.0083 0.1414
-0.1333 -0.1998 0.3242
0.0505 -0.0114 0.0844
0.0026 -0.0574 0.1147
0.0319 0.0108 0.0507
0.0185 -0.0184 0.0542
0.0290 -0.0067 0.0534
0.0029 -0.0016 0.0756
0.0447 -0.0677 0.1247
0.0480 -0.0186 0.0867
0.0246 0.0117 0.0565
0.0447 0.0173 0.0751
-0.0196 -0.1059 0.0752
0.0237 -0.0512 0.0685
-0.0342 -0.0992 0.1106
-0.0710 -0.1515 0.1305
0.0345 0.0167 0.0965
0.0010 -0.1245 0.0759
-0.0698 -0.0155 0.1864
0.0640 -0.0096 0.0761
0.2062 -0.7068 0.6398
0.0449 -0.7315 0.6205
-0.0342 -0.7184 0.5507
0.0029 -0.6961 0.6237
-0.1984 -0.7011 0.5573
-0.3945 -0.7014 0.5454
-0.3910 -0.7324 0.4998
-0.4755 -0.6515 0.4585
-0.0914 -0.7427 0.6208
-0.3826 -0.7857 0.8496
-0.6123 -0.6943 0.7770
0.1968 -1.4285 0.4596
0.4598 -1.4648 0.7814
0.1272 -0.6885 0.9128
0.1643 -0.7491 0.8477
0.0845 -0.7482 0.7300
-0.3022 -0.7068 0.7539
-0.3990 -0.7375 0.6098
-0.3781 -0.7148 0.7837
-0.3167 -0.7048 0.7147
0.2309 -1.3195 0.4490
0.0085 -0.7100 0.9051
-0.2510 -0.7250 0.6915
-0.5060 -0.6945 0.7780
-0.1391 -0.6873 0.5694
-0.2222 -0.7004 0.7092
-0.1125 -0.7410 0.7891
-0.1490 -0.7274 0.6927
-0.2481 -0.7473 0.4918
-0.3407 -0.6910 0.6970
-0.0683 -0.7211 0.7295
-0.4085 -0.7362 0.4512
0.4507 -1.3416 0.7298
-0.3408 -0.7143 0.5764
-0.0484 -0.7110 0.6563
0.1293 -0.7297 0.6926
-0.1710 -0.7462 0.5545
-0.2189 -0.7289 0.5241
-0.3253 -0.7022 0.4566
-0.4936 -0.7674 1.0250
0.0582 -0.7200 1.0893
-0.2417 -0.7406 0.8484
-0.4879 -0.7386 0.9522
-0.5803 -0.6630 0.8472
-0.6755 -0.7126 0.9228
-0.4829 -0.7439 0.8487
-0.5074 -0.6218 0.7876
-0.1190 -0.7277 0.8844
-0.2982 -0.7326 0.8184
-0.4977 -0.6928 0.9209
-0.0782 -0.7526 0.8836
-0.0177 -0.6810 0.9784
-0.4458 -0.7131 0.8643
-0.5235 -0.7394 0.8727
-0.5548 -0.6983 0.9030
0.0919 -0.6674 0.9828
-0.4258 -0.7016 0.8887
-0.4027 -0.7101 0.9025
0.0769 -0.7236 1.0437
-0.0773 -0.7417 0.9779
-0.1297 -0.7145 0.8230
0.0961 -0.6923 0.9529
-0.2098 -0.6407 0.8447
-0.2899 -0.7276 0.7121
0.1697 -0.7276 0.7809
0.1194 -0.6869 0.8810
-0.1001 -0.6898 0.6437
-0.1814 -0.7044 0.5943
-0.5342 -0.6882 0.5874
-0.1659 -0.7149 0.6425
0.0126 -0.7252 0.6135
-0.3330 -0.7453 0.5287
-0.4765 -0.7307 0.5396
-0.5528 -0.6774 0.6409
-0.2102 -0.6926 0.9468
-0.1914 -0.6973 0.9969
-0.1237 -0.7164 1.0242
-0.1445 -0.7300 0.9979
-0.0418 -0.7191 1.0889
-0.3975 -0.7230 0.5273
-0.4349 -0.7232 0.4430
0.1908 -0.6978 0.6616
-0.4618 -0.7008 0.6634
-0.1374 -0.6965 1.0575
0.0156 -0.6660 1.0337
0.0228 -0.6928 1.1630
-0.1858 -0.7072 0.7971
0.0471 -0.7052 0.8809
-0.0567 -0.7224 0.6200
0.1329 -0.7045 0.7477
0.1823 -0.7104 0.7010
0.0668 -0.7404 0.6771
-0.2966 -0.7506 0.6258
-0.3936 -0.6912 0.8209
-0.5873 -0.7412 0.8500
-0.0674 -0.7103 0.7208
-0.3782 -0.7461 0.4334
0.0125 -0.7194 0.6101
-0.3748 -0.7263 0.4657
0.1351 -0.6887 0.6071
0.0812 -0.7047 0.6970
0.0210 -0.7139 0.6817
-0.2643 -0.8005 0.5018
-0.4833 -0.6992 0.5805
0.0637 -0.7275 0.8564
-0.0574 -0.6476 0.9587
-0.6691 -0.6980 0.9432
0.1296 -0.5744 1.6488
0.1225 -0.7433 1.0165
-0.1246 -0.7030 0.6174
-0.1904 -0.7308 0.6118
-0.3177 -0.7104 0.6190
-0.3664 -0.6830 0.5786
0.0423 -0.7462 1.1852
-0.0143 -0.6779 0.8308
-0.4815 -0.7172 0.7828
-0.4783 -0.7476 0.7436
-0.0813 -0.7204 1.1095
-0.4389 -0.7570 0.7294
0.1156 -0.7110 0.9126
0.0234 -0.7847 0.6222
0.0992 -0.7487 1.0205
0.0954 -0.7474 0.9033
-0.3655 -0.7624 0.6006
-0.3385 -0.7252 0.4702
-0.0557 -0.7038 0.8786
-0.3569 -0.7175 0.7230
-0.0257 -0.7796 1.2105
-0.3411 -0.6931 1.0125
-0.3763 -0.7304 0.6920
-0.3052 -0.6839 0.6020
-0.4699 -0.6764 0.7062
-0.6186 -0.6624 0.8680
-0.6350 -0.7212 0.9107
-0.2185 -0.6968 0.6108
-0.2899 -0.6723 0.6387
-0.0680 -0.7153 0.5544
-0.4851 -0.6958 0.9682
-0.1842 -0.6497 0.5308
-0.4653 -0.7004 0.9978
0.1560 -0.7575 0.6514
-0.1366 -0.7046 0.5217
-0.6892 -0.7180 0.9679
-0.3572 -0.7439 0.5946
-0.4581 -0.7177 0.7211
-0.3379 -0.7589 0.5357
0.1457 -0.6663 0.7674
0.0761 -0.7956 0.7154
-0.2367 -0.6848 0.6623
0.0802 -0.6786 0.6779
-0.3635 -0.7092 0.6767
-0.4063 -0.7087 0.6930
-0.5490 -0.7400 0.9349
-0.4489 -0.7331 0.7760
0.1024 -0.6117 0.6096
0.0808 -0.7214 0.6084
-0.3452 -0.6832 0.5190
-0.4644 -0.7017 0.6650
-0.0834 -0.7004 0.5964
-0.3334 -0.7135 0.6544
-0.0944 -0.7321 0.5336
-0.5111 -0.7074 0.6879
-0.6313 -0.8028 0.7816
-0.3307 -0.7174 0.5476
-0.2335 -0.7163 0.4727
0.0703 -0.6597 0.9624
0.0506 -0.7163 0.8947
-0.6161 -0.7481 0.9171
-0.5958 -0.7028 0.8304
0.1768 -0.7161 0.7361
-0.1083 -0.7280 0.6735
0.2514 -1.4380 0.4799
-0.2438 -0.6972 0.5070
0.0624 -0.7590 0.6019
-0.1845 -0.7120 0.5116
-0.2196 -0.7229 0.5235
-0.3861 -0.7226 0.4955
-0.3998 -0.6767 0.4916
-0.5146 -0.6638 0.5733
-0.1084 -0.7122 0.7631
-0.1555 -0.7350 0.8044
-0.2575 -0.7384 0.8045
-0.4413 -0.7077 0.8581
-0.4711 -0.7285 0.8361
-0.1407 -0.7021 0.6718
-0.0101 -1.3772 0.4055
0.1374 -0.7102 0.8428
-0.6281 -0.7376 0.7539
0.0992 -0.7321 0.6848
-0.0751 -0.7163 0.5757
0.1880 -0.7543 0.6583
-0.0198 -0.7167 0.7051
-0.0993 -0.7020 0.5503
-0.1654 -0.7286 0.5446
-0.0378 -0.7290 1.1954
-0.0231 -0.6871 1.0838
-0.0720 -0.7020 0.8350
-1.1088 -0.8176 1.7372
-0.1206 -0.7434 0.9023
0.0599 -0.7272 1.0983
-0.2164 -0.7329 0.7827
0.0414 -0.7067 1.0287
0.0300 -0.7620 0.8971
0.1323 -0.7564 0.8238
-0.1677 -0.7222 0.6476
-0.1964 -0.7551 0.6289
-0.3719 -0.4728 0.4231
-0.5072 -0.7239 0.4369
-0.4436 -0.7370 0.4483
-0.5091 -0.7412 0.4289
-0.1625 -0.7745 0.5332
-0.4044 -0.7301 0.4492
-0.6333 -0.7185 0.8037
-0.1493 -0.7528 1.0276
-0.1758 -0.7294 0.8611
-0.2824 -0.6970 0.7865
-0.4654 -0.7305 0.7324
-0.2317 -0.7162 0.8264
-0.4677 -0.6889 0.3825
-0.3143 -0.7339 0.4923
-0.0351 -0.6895 0.5622
-0.4412 -0.7335 0.9967
-0.1055 -0.7328 1.0873
0.0256 -0.7293 1.2153
-0.5793 -0.7558 0.9068
-0.6788 -0.7662 0.8499
-0.0781 -0.6860 0.9663
-0.1956 -0.6650 0.8126
-0.3941 -0.7409 0.8101
-0.5607 -0.7153 0.7158
-0.5263 -0.7310 0.4875
-0.0906 -0.6874 0.6813
0.0046 -0.6685 0.6022
-0.0490 -0.7181 0.6614
-0.2365 -0.6891 0.6642
-0.3230 -0.7146 0.9731
-0.1674 -0.7268 1.0610
-0.2644 -0.7223 1.0057
-1.3019 -0.8232 1.5836
0.0403 -0.7288 1.1623
-0.3380 -0.7533 0.9096
-0.5810 -0.7325 0.8403
0.0865 -0.7249 0.7119
-0.3311 -0.7079 0.4589
-0.6524 -0.7104 0.8579
-0.3516 -0.6984 0.5232
-0.4093 -0.6915 0.4953
0.1493 -0.7130 0.6216
-0.2358 -0.6993 0.5713
-0.1841 -0.7131 0.6005
0.0404 0.0339 0.0228

