-0.5559 -1.6488 0.4436
-0.2203 -0.8573 0.2145
-0.4761 -0.9135 0.5011
-0.5659 -0.8301 0.4326
-0.4151 -0.1573 0.1869
-0.5258 -0.8944 0.4669
-0.6016 -0.8429 0.3479
-0.6953 -0.8366 0.3408
-0.7823 -0.8141 0.3699
-0.8268 -0.8362 0.2948
-0.8298 -0.8190 0.2746
-0.8451 -0.8288 0.2539
-0.8567 -0.8094 0.1355
-0.8764 -0.8201 0.4311
-0.8928 -0.8127 0.4246
-0.9220 -0.8145 0.1687
-0.9709 -0.8257 0.6210
-0.9563 -0.8076 0.2224
-1.0020 -0.8101 0.5708
-0.9896 -0.8125 0.1942
-1.0099 -0.8033 0.5011
-1.0067 -0.8074 0.1831
-0.4602 -0.7939 0.3313
-0.9608 -0.8034 0.1393
-0.9311 -0.8048 0.1224
-0.3766 -0.7801 0.4518
-0.1765 -0.3205 0.9483
-0.2466 -0.2835 0.9484
-0.6065 -0.8604 0.5206
-0.7090 -0.8650 0.4774
-0.8967 -0.8207 0.6160
-1.0056 -0.9123 0.5156
-0.2045 -0.1591 0.9527
-0.2222 -0.1427 0.9294
-0.2666 -0.2100 0.9075
-0.3829 -0.8223 0.4210
-0.3910 -0.8724 0.3524
-0.3945 -0.8162 0.3787
-0.4136 -0.7319 0.3649
-0.5022 -0.8633 0.4458
-0.5875 -0.8333 0.5137
-0.5272 -0.8530 0.3924
-0.6426 -0.8083 0.5076
-0.4588 -0.1231 0.3128
-0.9317 -1.5404 0.5300
-0.7124 -0.8924 0.6454
-0.7968 -0.8972 1.6026
-0.7500 -0.8535 0.4263
-0.8592 -0.8469 0.8177
-0.8917 -0.9225 0.8423
-0.9943 -0.8388 2.0070
-1.0945 -0.9895 1.9880
-0.9240 -0.8477 0.6220
-0.9750 -0.9484 0.6292
-0.8961 -0.8662 0.2271
-0.9444 -0.8683 0.5232
-0.9648 -0.8018 0.3297
-1.0230 -0.8896 0.8977
-0.9967 -0.7924 0.3542
-1.0104 -0.7960 0.2463
-1.0699 -0.9078 0.5617
-1.0504 -0.8906 0.5261
-0.2444 -0.6705 0.4468
-0.5063 -0.8569 0.4877
-0.8995 -0.8939 2.0022
-0.8284 -0.8435 0.7784
-1.0815 -0.9366 2.0230
-0.9809 -0.9140 0.5649
-1.3534 -0.8321 1.4062
-1.0219 -0.8801 0.8949
-1.0471 -0.8754 0.5700
-0.3855 -0.8803 0.3764
-1.2957 -0.8631 1.6862
-0.2767 -0.7619 0.4931
-0.2431 -1.1525 0.5821
-0.3000 -0.8142 0.4996
-1.0586 -0.8431 0.5030
-1.2497 -0.8692 0.9367
-1.1924 -0.8747 0.9190
-0.9524 -0.7858 0.2088
-1.3049 -0.8920 1.2609
-1.2761 -0.8531 1.2675
-0.9934 -0.8924 0.4663
-1.5803 -0.8983 2.1683
-1.1507 -0.8808 0.9980
-1.2393 -0.7777 1.4804
-1.2616 -0.8856 1.5333
-0.5574 -0.8477 0.4034
-0.8464 -0.8399 0.5158
-0.8346 -0.8943 0.6371
-0.9644 -0.8919 1.1247
-0.5455 -0.9017 0.5338
-0.5271 -0.9126 0.3767
-0.5587 -0.9105 0.4943
-0.7006 -0.8904 0.6238
-1.0060 -0.8442 1.9353
-0.5757 -0.9052 0.4917
-0.6325 -0.8812 0.6136
-0.5599 -0.9064 0.3619
-0.6174 -0.9022 0.6221
-0.7668 -0.9282 1.3312
-0.7454 -0.8882 1.2527
-0.2520 -0.8740 1.9033
-0.7758 -0.8573 1.2355
-0.5544 -0.9152 0.4059
-0.7717 -0.8264 0.5587
-0.4318 -0.9115 1.7007
-1.1784 -0.9197 0.7765
-0.5718 -0.9102 0.5354
-1.1164 -0.9227 0.6301
-0.3999 -0.8999 1.4572
-1.4653 -0.6940 1.1464
-0.8443 -0.9022 1.1911
-0.7753 -0.9180 0.8067
-0.3439 -0.9131 0.4095
-1.0973 -0.7850 0.4527
-0.5576 -1.0271 2.1174
-0.8149 -0.9584 0.7989
-0.7594 -0.8949 0.5862
-0.8562 -0.8119 0.5050
-1.0230 -0.8962 1.3126
-0.8575 -0.8832 1.6829
-0.9827 -0.8885 1.0372
-0.9870 -0.9440 1.0240
-0.4724 -0.8973 0.3221
-0.9266 -0.8845 0.7342
-0.4445 -0.9302 0.6162
-1.0970 -0.9038 1.2692
-1.0896 -0.8985 1.2282
-1.0083 -0.8447 0.9734
-0.5900 -0.9438 1.5799
-0.9390 -0.8777 0.7052
-0.6251 -0.8724 1.5946
-0.4808 -0.9124 0.6524
-1.0770 -0.7741 0.6903
-0.4785 -0.9111 0.4366
-0.4429 -0.8544 0.3034
-1.1352 -0.9088 1.0975
-1.0100 -0.8813 0.7116
-0.7222 -0.8689 1.2102
-0.4354 -0.9286 0.3512
-0.9822 -0.8864 0.8968
-0.8195 -0.8410 0.6207
-0.9652 -0.9041 0.9757
-1.2723 -0.9204 1.2461
-0.5547 -0.9305 1.7642
-1.1473 -0.8311 1.9916
-0.8824 -0.9059 0.9161
-0.8349 -0.8157 0.5711
-1.1342 -0.8858 0.7987
-0.1500 -0.6167 1.1745
-0.3201 -0.9322 1.8502
-0.3253 -0.9221 1.5471
-0.4394 -0.9019 1.6195
-0.3674 -0.8724 0.4025
-0.5337 -0.9716 1.9744
-0.5977 -0.9010 1.9819
-0.5992 -0.9061 1.2013
-0.7879 -1.0033 2.2651
-0.6801 -0.8215 0.5138
-0.8557 -0.9159 1.4846
-0.9144 -0.8308 0.7146
-1.1950 -0.8961 1.4232
-1.3107 -0.8604 1.4993
-1.0188 -0.8886 0.4692
-0.4545 -0.3110 0.6424
-1.0235 -0.9575 1.8834
-1.0680 -0.8945 1.9439
-1.3371 -0.8769 2.1695
-0.7565 -0.8906 2.2550
-0.9512 -0.8579 0.4289
-0.5606 -0.8131 0.7651
-1.7064 -0.7789 1.7545
-0.9946 -0.9290 0.4943
-1.5161 -0.8448 2.2058
-1.0108 -0.9645 2.0243
-0.9536 -0.9788 2.3286
-1.1027 -0.8233 0.7298
-1.0749 -0.9349 2.6033
-1.6705 -0.8635 2.1622
-0.6924 -0.8800 1.4990
-0.6754 -0.8925 1.8574
-0.5979 -0.8691 0.5355
-0.6731 -0.8680 0.7898
-1.3205 -0.9299 0.9334
-0.2789 -0.9510 1.5863
-0.5857 -0.9160 0.4752
-1.2044 -0.8841 0.8904
-0.8155 -0.9221 1.2584
-0.7752 -0.9807 2.3035
-1.2788 -0.8250 1.0943
-0.8931 -0.8948 0.8057
-0.6999 -0.6217 0.4286
-0.6452 -0.9752 2.3305
-1.0738 -0.9063 2.4733
-0.8510 -0.9111 1.5125
-0.7104 -0.8977 0.7307
-0.5558 -0.9300 0.5471
-0.7967 -0.9184 1.2108
-0.8395 -0.9013 0.4988
-1.2521 -0.8782 1.1283
-1.2870 -0.9222 1.0379
-1.2715 -0.9069 0.9077
-1.1724 -0.8938 1.8544
-0.5015 -0.9318 1.7384
-1.1015 -0.9266 0.4655
-1.1055 -0.9155 0.4805
-1.6681 -0.6275 1.3995
-1.6219 -0.6621 1.3582
-0.4635 -0.5996 0.7277
-1.0876 -0.9195 0.4837
-1.7352 -0.7539 1.5073
-0.9882 -0.9192 0.4028
-0.5357 -0.8790 0.7870
-1.1973 -0.9099 0.7301
-1.0894 -0.9239 0.6259
-0.9823 -0.9062 0.6428
-1.2753 -0.9026 1.1536
-0.7972 -0.8815 0.3906
-1.1418 -0.8744 0.9934
-0.9570 -0.9067 0.6727
-0.9023 -0.9182 0.7244
-0.8633 -0.9330 0.5453
-0.9541 -0.9155 0.7193
-0.9453 -0.9183 0.7033
-1.2471 -0.8369 0.6303
-0.9956 -0.9120 0.6707
-0.8963 -0.8755 0.3696
-0.9541 -0.9048 1.3707
-0.5762 -0.9087 0.6059
-0.6515 -0.9521 0.8591
-0.8008 -0.8988 2.4233
-1.3341 -0.9780 2.2741
-0.6416 -0.9089 0.5587
-0.8257 -0.9127 0.8643
-1.2122 -0.8347 1.0057
-1.1759 -0.8655 0.4659
-1.0657 -0.9171 0.3245
-1.1269 -0.9099 0.4337
-1.1205 -0.9373 0.4386
-1.8293 -0.7680 1.4577
-0.6043 -0.9254 1.6046
-1.1995 -0.8742 0.7165
-1.7439 -0.8033 1.5782
-1.0404 -0.8823 2.0842
-0.5530 -0.8180 0.8021
-0.5371 -0.9110 0.7841
-1.7743 -0.9004 1.8431
-0.5697 -0.9381 0.8207
-1.1967 -0.8963 1.9969
-1.3222 -0.8692 1.2927
-1.2555 -0.8003 1.4572
-1.2597 -1.0374 1.9585
-1.3046 -0.9571 1.5592
-0.9115 -0.9060 0.9167
-1.0313 -0.9268 0.8945
-1.1924 -0.9164 0.5267
-1.1841 -0.8512 0.5670
-1.1324 -0.8556 0.6062
-1.1525 -0.9087 1.2612
-0.9482 -0.8659 0.4993
-1.0325 -0.9300 1.0196
-0.8148 -0.8280 1.3438
-0.8371 -0.3983 1.4403
-0.6066 -0.8985 1.2078
-0.4959 -0.8484 0.8186
-0.7011 -0.9558 1.0047
-1.0324 -0.9172 0.4858
-1.3929 -0.9118 0.8223
-1.0748 -0.9204 1.9794
-1.4105 -0.8613 0.8206
-1.2609 -0.9110 0.7121
-0.7933 -0.8875 1.3971
-0.8707 -0.8787 1.4917
-0.7488 -0.8891 1.2409
-1.0601 -0.9386 1.8740
-1.2188 -0.9404 2.1692
-0.9257 -0.9224 0.5117
-1.1492 -0.8501 1.8159
-1.1985 -0.9195 1.8880
-1.2286 -0.9178 1.9065
-0.9304 -0.8893 0.8252
-0.7690 -0.9255 0.6006
-0.8176 -0.8697 0.9738
-0.5433 -1.7830 0.7902
-0.8051 -0.9374 0.9041
-1.0208 -0.8687 1.0501
-1.0030 -0.8738 1.0389
-1.2185 -0.8560 1.5349
-1.3503 -0.8971 1.0347
-1.0862 -0.8921 1.2509
-0.6842 -0.9131 0.6202
-0.9481 -0.9383 1.0220
-0.8590 -0.9221 0.8218
-1.1254 -0.9485 0.6335
-1.0858 -0.9417 0.3243
-1.1878 -0.8743 1.9660
-1.5910 -0.8788 0.7204
-1.2742 -0.8636 1.5198
-0.8323 -0.8648 1.1596
-0.7659 -0.9501 1.3700
-0.5145 -0.7862 0.7809
-1.4358 -0.9453 0.4953
-1.3668 -0.8674 0.5193
-1.3593 -0.8738 0.9953
-0.7890 -0.9210 1.6592
-1.0483 -0.9019 0.6933
-1.5407 -0.8982 0.6999
-0.8283 -0.8917 0.6328
-1.4412 -0.8467 0.9767
-1.3156 -0.9324 0.7264
-0.7376 -0.8795 1.2444
-1.2630 -0.8380 1.5836
-1.1428 -0.8637 1.3011
-1.3333 -0.8469 1.4980
-1.4888 -0.9109 1.1938
-0.6255 -0.8770 2.2825
-1.0742 -0.8915 0.5243
-1.0149 -0.9030 0.4679
-1.2756 -0.9174 1.6178
-0.8433 -0.8599 0.8092
-0.3670 -0.7895 0.4180
-0.5264 -0.8847 0.8512
-0.7129 -0.8871 0.5998
-0.7651 -0.9152 0.4387
-0.7722 -0.9110 0.4580
-0.6868 -0.8799 0.5622
-0.7551 -0.9114 0.5730
-0.6927 -0.9009 1.2835
-0.9112 -0.9316 1.9588
-0.9579 -0.9083 0.9465
-0.3745 -0.9835 2.3761
-0.5173 -0.6998 0.7146
-0.6797 -0.9215 0.5431
-1.2538 -0.9333 0.8719
-1.0448 -0.7998 2.1459
-0.8290 -0.9138 0.7301
-1.6301 -0.6721 1.3317
-0.5094 -0.3112 0.6694
-1.6006 -0.5593 1.3851
-0.9618 -0.8966 0.3564
-1.3693 -0.8944 0.9647
-1.0216 -0.8695 2.1621
-1.6202 -0.5779 1.4614
-1.4171 -0.8695 1.1037
-0.9030 -0.8825 0.3450
-0.9427 -0.9195 1.4634
-0.6874 -0.9103 0.6474
-0.8527 -0.9011 0.3258
-1.1937 -0.6614 1.4014
-0.7306 -0.9367 0.4167
-1.0234 -0.8821 0.8969
-1.2737 -0.8438 1.3105
-0.8094 -0.9298 0.4532
-1.1232 -0.8547 0.4955
-1.1063 -0.8770 0.4787
-1.1561 -0.8779 0.9434
-1.3099 -0.8991 0.7774
-0.7841 -0.9269 2.3649
-0.6557 -0.8871 1.4979
-1.3250 -0.8638 0.9892
-1.2061 -1.0029 0.6973
-0.3912 -0.9740 1.5264
-0.6917 -0.9093 2.1579
-0.5316 -0.3320 0.6285
-0.5663 -0.9553 1.1769
-0.8116 -0.9186 1.5547
-0.7126 -0.8978 1.0205
-0.5773 -0.8750 0.5976
-0.6759 -0.9014 0.6091
-0.9308 -0.8890 0.9913
-0.9558 -0.9517 0.8498
-0.9010 -0.8663 0.6936
-0.8180 -0.8944 0.4281
-0.9163 -0.8924 0.4161
-1.2629 -0.7645 0.9669
-1.0719 -0.9008 0.5469
-1.7077 -0.8920 1.3133
-0.5086 -0.9768 0.8784
-1.0337 -0.9242 0.9151
-1.3105 -0.9006 0.6322
-1.7240 -0.7128 1.3996
-1.7026 -0.7718 1.3823
-0.6408 -0.9572 2.4143
-0.3324 -0.9114 1.2798
-0.7025 -0.9171 0.6318
-1.1059 -0.9738 0.4385
-0.7717 -0.9564 0.4619
-0.3379 -0.9134 1.3160
-0.5155 -0.9869 1.7121
-1.2215 -0.8687 0.8438
-1.3595 -0.9559 0.6424
-0.7851 -0.9190 0.8568
-0.8392 -0.9287 0.5463
-0.9232 -0.8825 0.7513
-1.2082 -0.9576 1.9356
-1.2291 -0.8338 1.5512
-0.7251 -0.9200 0.5012
-0.8937 -0.9144 0.6524
-1.2691 -0.9222 0.7268
-1.0034 -0.9060 1.8022
-1.3808 -0.6617 1.3574
-1.0845 -0.9097 0.3650
-0.4712 -0.9133 1.1027
-0.4496 -0.6339 0.6982
-0.6581 -0.8942 1.4984
-0.4773 -0.9211 1.0742
-0.4740 -0.8975 1.0147
-0.4619 -0.9078 0.9336
-0.9526 -0.8976 0.3766
-1.2799 -0.8946 0.7787
-0.9936 -0.8849 0.4683
-0.8721 -0.8582 0.4009
-1.3031 -0.8980 1.1906
-1.3151 -0.8905 1.2185
-0.9150 -0.8863 0.6834
-1.0488 -0.8892 0.8758
-1.3341 -0.9573 1.5138
-0.8544 -0.8990 0.8275
-0.6658 -0.8948 0.5819
-0.9470 -0.8404 0.6894
-0.5054 -0.8917 1.1566
-0.7721 -0.8926 0.6055
-0.7833 -0.8912 0.6367
-0.6996 -0.9197 1.7904
-0.6336 -0.8060 1.3963
-0.4468 -0.8919 0.9070
-0.8347 -0.9480 1.1625
-1.0719 -0.9001 0.5477
-0.8497 -0.9686 1.0509
-1.2558 -0.9178 0.9701
-1.0556 -0.9166 0.4132
-1.3710 -0.9395 0.7723
-1.0533 -0.9312 0.5871
-1.5113 -0.9444 0.4733
-1.6666 -0.8913 0.6761
-1.3466 -0.9233 0.3646
-0.5519 -0.8854 0.8639
-1.5216 -0.9290 0.5989
-1.0574 -0.9229 1.8022
-1.1896 -0.9329 0.4920
-0.7507 -0.8867 0.9459
-1.2928 -0.8164 1.5601
-0.9921 -0.8757 1.0210
-1.4299 -0.1679 1.2993
-0.9360 -0.9013 0.6581
-0.6594 -0.9051 1.2004
-0.5279 -0.8054 0.7682
-0.9840 -0.8669 1.2929
-1.2337 -0.8621 1.0718
-1.2344 -0.8920 0.4129
-1.2854 -0.8952 0.3878
-1.6187 -0.9651 0.6668
-1.0415 -0.8285 0.5674
-1.0606 -0.8917 0.5818
-0.5515 -0.8234 0.8304
-1.3219 -0.8791 0.7055
-1.0483 -0.8428 1.8829
-0.7902 -0.7779 1.2340
-0.8860 -0.8287 0.8134
-1.1796 -0.8973 1.9006
-1.2822 -0.8647 0.6202
-1.1184 -0.8420 0.5546
-1.5571 -0.8621 0.5784
-0.8453 -0.8373 0.8480
-1.0950 -0.8187 1.2149
-1.2485 -0.8790 0.3192
-1.2484 -0.8755 0.3760
-1.5656 -0.8747 0.8535
-1.1812 -0.8503 0.9066
-0.9333 -0.8464 0.7428
-1.5963 -0.8967 0.7875
-0.9463 -0.8346 0.7424
-0.9528 -0.8413 0.7064
-1.5518 -0.9157 1.0430
-0.8435 -0.8541 1.0019
-1.4963 -0.8779 0.7559
-1.5194 -0.8991 1.0623
-1.0537 -0.0793 1.1263
-1.0704 -0.8421 1.1343
-1.2987 -0.8667 0.9104
-0.7055 -0.8506 1.1879
-0.6035 -0.8219 0.7421
-0.6826 -0.8366 0.7787
-0.9376 -0.8364 1.1381
-0.8830 -0.8308 0.7413
-0.9228 -0.8448 0.7771
-1.2822 -0.8971 0.9007
-1.2594 -0.8399 0.7806
-1.5569 -0.8380 0.9058
-1.3666 -0.8725 0.4078
-1.3241 -0.9229 0.7207
-1.4038 -0.8942 0.9098
-1.1922 -0.8964 0.9570
-0.5088 -0.9220 1.0273
-1.3136 -0.9448 1.2946
-1.2006 -0.9236 1.6722
-0.8936 -0.8876 0.5379
-0.7109 -0.9303 0.9024
-1.0999 -0.9488 1.2540
-0.7617 -0.8745 0.5730
-0.5991 -0.8307 0.6468
-1.4219 -0.8471 1.4776
-0.5822 -0.4829 0.6524
-1.4483 -0.9469 0.8573
-1.2222 -0.9222 0.5533
-0.6513 -0.9500 1.5066
-1.2381 -0.9148 0.5009
-0.9731 -0.9097 0.4451
-1.2607 -0.8849 1.4896
-1.0292 -0.8860 0.8998
-0.7799 -0.8818 1.5638
-0.5164 -0.7887 0.8124
-1.2654 -0.8946 0.2506
-1.5433 -0.9119 0.5516
-1.3224 -0.9145 0.3548
-1.4372 -0.8942 0.4840
-1.6813 -0.8843 0.7442
-0.7721 -0.9235 1.3567
-1.3092 -0.9186 0.4079
-1.2763 -0.9385 0.4420
-1.4393 -0.8993 0.7126
-1.2807 -0.9220 0.6496
-0.7607 -0.9465 0.9504
-0.7743 -0.9365 0.9227
-0.7757 -0.9106 0.8953
-1.1577 -0.8412 1.5645
-1.0951 -0.9010 0.5593
-1.4660 -0.8887 1.0197
-0.9925 -0.9137 0.4393
-1.0016 -0.9111 0.4665
-0.9734 -0.8930 0.4444
-0.9788 -0.8899 0.9958
-0.9775 -0.8974 0.5350
-0.9227 -0.8948 0.4758
-0.9248 -0.9156 0.5190
-1.0252 -0.9952 0.9155
-1.1626 -0.8893 1.0915
-1.3313 -0.8690 1.2312
-1.2805 -0.8218 1.3031
-0.9357 -0.9627 1.4866
-1.1083 -0.9163 1.1352
-0.9543 -0.8734 0.9291
-1.2496 -0.8184 0.7093
-1.2390 -0.9698 0.4611
-1.2322 -0.8637 0.4179
-2.0246 -0.1689 1.3271
-1.2810 -0.8389 1.0884
-1.2978 -0.8446 1.0961
-1.9901 -0.1789 1.3541
-1.8159 -0.1588 1.2226
-1.9236 -0.1358 1.0308
-1.8656 -0.1546 0.9889
-1.7437 -0.1954 0.9201
-1.6718 -0.1574 0.8808
-2.2674 -0.1747 0.9279
-2.0845 -0.1430 0.8320
-2.0016 -0.1483 0.7805
-1.9622 -0.1431 1.0463
-1.7163 -0.1441 1.3015
-1.8421 -0.1949 1.2525
-1.7773 -0.1438 1.1461
-1.7768 -0.1480 0.6657
-1.6021 -0.1830 1.1047
-1.7796 -0.1638 1.2127
-1.9010 -0.1737 1.2158
-1.6330 -0.1752 1.1188
-1.8636 -0.1710 1.2379
-1.8075 -0.1680 0.9216
-1.6503 -0.1401 0.8285
-2.1158 -0.1441 0.8490
-1.6428 -0.1938 1.1952
-1.5336 -0.1760 1.0640
-1.5359 -0.1385 1.0275
-1.9266 -0.1509 1.2704
-1.8039 -0.1498 1.0579
-1.7535 -0.1433 0.9880
-1.7557 -0.1551 0.9663
-2.0592 -0.1475 1.0777
-1.9677 -0.1267 1.0393
-1.8494 -0.1249 1.3117
-1.8569 -0.1328 1.2225
-1.8390 -0.1439 1.2101
-1.6551 -0.1407 1.1270
-1.7362 -0.1718 1.4578
-1.5177 -0.1461 1.0434
-1.6396 -0.1388 1.1226
-1.7569 -0.1306 1.1943
-1.9011 -0.1616 1.3085
-1.7454 -0.2133 1.1996
-1.7427 -0.1246 1.1474
-1.8589 -0.1155 1.2243
-1.9416 -0.1491 1.2887
-2.0007 -0.1567 1.2995
-1.6924 -0.1467 0.8983
-2.0208 -0.1573 1.0804
-1.8797 -0.1874 0.9713
-1.8606 -0.1591 0.9668
-1.8496 -0.1525 0.8671
-1.7186 -0.1499 0.9040
-1.6004 -0.1416 1.2875
-1.6849 -0.1541 1.1401
-1.6613 -0.1393 1.1407
-1.7338 -0.1478 1.4349
-1.7130 -0.1313 1.0554
-1.7415 -0.1949 0.9152
-1.7940 -0.1577 0.9485
-2.0562 -0.1707 1.0974
-1.9674 -0.1605 1.0396
-1.6702 -0.1469 1.1474
-1.7698 -0.1614 1.1722
-1.8946 -0.1237 1.2626
-1.6766 -0.1456 0.9134
-1.7354 -0.1468 0.9197
-1.6940 -0.1509 0.8866
-1.8798 -0.1382 0.9846
-2.0269 -0.1419 1.0563
-1.8845 -0.1410 0.9656
-1.6415 -0.1391 0.8297
-2.0003 -0.1666 1.0131
-1.9980 -0.1289 0.9508
-1.6737 -0.1474 1.1466
-1.7853 -0.1523 0.9830
-1.7942 -0.1590 0.9481
-1.7553 -0.1597 1.1888
-1.6254 -0.1242 1.1495
-1.6764 -0.1323 1.1637
-1.6060 0.0377 1.0468
-1.7736 -0.1659 1.2256
-1.8711 -0.1902 1.5464
-1.7865 -0.1610 1.4587
-1.6848 -0.1473 1.1155
-1.7904 -0.1392 1.1003
-1.7449 -0.1471 1.0261
-1.9154 -0.1314 1.1287
-1.5808 -0.1397 0.8478
-1.9537 -0.1467 1.0237
-2.0145 -0.1637 1.0629
-1.9181 -0.1696 0.9991
-2.1315 -0.1599 1.1301
-2.0679 -0.1645 0.9752
-1.9811 -0.1343 0.9289
-1.6034 -0.1406 1.2735
-1.9218 -0.1549 1.2905
-1.8226 -0.1299 1.2249
-1.7714 -0.1597 0.9907
-1.7691 -0.1715 1.1768
-1.9384 -0.1713 0.9676
-1.7258 -0.1352 1.4029
-1.6924 -0.1651 1.2978
-1.8098 -0.1291 1.1331
-1.8588 -0.1350 1.1494
-1.9090 -0.1780 1.2045
-1.8709 -0.1456 1.1392
-2.0670 -0.1307 1.0908
-2.0474 -0.1581 1.0555
-1.8907 -0.1595 1.1408
-1.7298 -0.1558 1.1815
-1.6503 -0.1511 0.8428
-1.7709 -0.1405 1.0158
-1.6703 -0.1499 1.1470
-1.6235 -0.0945 1.2372
-1.6967 -0.1474 1.2565
-1.7439 -0.1699 1.1507
-1.8300 -0.1376 1.1918
-1.8820 -0.1124 1.1059
-2.1014 -0.1655 0.8356
-1.6752 -0.1274 1.1413
-1.6940 -0.1583 1.1367
-1.8004 -0.0640 1.1998
-1.8655 -0.1418 1.2559
-1.8689 -0.1776 1.2261
-1.8766 -0.1421 1.1229
-1.7101 -0.1507 0.8851
-1.6954 -0.1626 0.8708
-1.8562 -0.1586 0.9521
-2.0018 -0.1450 1.0259
-1.9835 -0.1302 1.0135
-1.9906 -0.1374 0.9431
-1.7565 -0.1493 1.0063
-1.8822 -0.1587 0.7882
-1.6954 -0.1511 1.1254
-1.6112 -0.1147 1.2209
-1.6990 -0.0735 1.1041
-1.9425 -0.1195 1.0261
-1.9015 -0.1732 0.9678
-1.7936 -0.1129 1.3468
-1.7805 -0.1670 1.2274
-1.7339 -0.1490 1.1533
-1.7583 -0.1556 1.1699
-1.8869 -0.1785 1.1285
-1.9615 -0.1701 0.9876
-1.9827 -0.0997 0.9575
-1.8405 -0.1498 0.8569
-1.6402 -0.1319 0.8393
-1.7249 -0.1631 1.1888
-1.8769 -0.1771 1.1465
-1.7922 -0.1596 0.9311
-1.7675 -0.1011 0.7632
-1.7949 -0.1550 0.9198
-1.7621 -0.1673 0.9563
-1.9242 -0.1636 0.9961
-1.9499 -0.1586 1.2785
-1.8230 -0.1687 1.1951
-1.7280 -0.1465 1.0466
-1.7035 -0.1646 0.8777
-1.8748 -0.1562 0.9566
-1.9872 -0.1393 0.9436
-2.0040 -0.1254 0.8730
-1.7812 -0.2511 1.2403
-1.6524 -0.1647 0.8126
-1.5292 -0.1067 1.0325
-3.3053 -0.6099 1.3784
-1.8983 -0.1566 0.9709
-1.8952 -0.0785 0.9553

