0.3049 -1.2755 0.1644
-0.0368 -1.2553 0.3437
0.3206 -1.2108 0.1615
-0.0194 -1.2556 0.1052
0.3034 -1.2735 -0.2377
0.3357 -0.8389 -0.0400
0.3598 -0.8649 -0.0077
-0.3077 -1.2560 -0.2030
0.3376 -1.2032 0.1546
0.3757 -1.2659 0.1289
-0.1450 -1.3123 -0.1509
-0.0375 -1.3057 -0.1521
0.0484 -1.2475 0.5287
0.0125 -1.2265 0.5198
-0.2469 -1.2717 -0.1640
0.1154 -1.2313 0.5771
0.3719 -0.6843 -0.0273
0.3288 -1.2513 -0.2280
-0.0039 -1.2801 0.0443
0.3515 -0.9329 -0.0708
0.0045 -1.2284 -0.0589
0.6010 -1.2250 0.7238
0.3916 -1.1299 0.7714
0.4961 -1.1197 0.7731
0.4482 -1.1533 0.7582
0.3472 -1.1871 0.7996
0.0903 -0.7005 -0.0394
0.0807 -1.2421 -0.0724
0.2957 -0.8564 -0.1423
0.1280 -1.2143 0.3215
-0.0785 -1.2443 -0.1554
-0.3827 -1.2660 0.1622
0.6770 -1.4109 0.6804
-0.3920 -1.2465 0.1670
0.2642 -1.2844 0.0030
0.3206 -1.3316 0.8906
0.0294 -1.2640 0.5539
0.3893 -0.9425 -0.0790
0.2822 -0.8468 0.0434
0.3016 -0.6626 0.0351
0.4819 -0.9216 0.6946
0.3903 -1.1447 0.8378
0.0958 -1.2760 0.3483
-0.3800 -1.2569 0.1191
0.3780 -0.6193 -0.0341
-0.1693 -1.5232 0.4136
0.2702 -1.2460 -0.1210
-0.0677 -1.2462 0.1212
-0.5250 -1.2031 -0.0441
-0.1953 -1.1964 -0.1452
-0.4369 -1.2128 0.0699
-0.0684 -1.3206 -0.0649
-0.0999 -1.2401 -0.2435
-0.4815 -1.2157 -0.0999
0.3537 -1.2611 0.0515
-0.3670 -1.2638 -0.0435
-0.0740 -1.2321 0.0115
-0.3081 -1.2774 -0.2529
-0.4665 -1.2281 0.1256
0.4911 -1.0592 0.6862
0.3446 -1.1784 0.1918
0.0815 -1.2064 0.5463
0.3526 -0.9685 0.6967
-0.3081 -1.2729 0.1116
0.5824 -1.3553 0.3214
-0.0704 -1.2809 0.0792
0.2024 -1.2340 0.0709
0.1263 -1.2739 -0.0785
0.3488 -0.6310 -0.0310
-0.0032 -1.1097 0.5147
0.4172 -0.5816 0.1905
0.2688 -1.1024 0.8843
0.3452 -0.5409 -0.0329
0.5397 -2.0266 1.7042
0.2997 -1.1294 0.8983
0.2976 -1.1885 -0.2551
-0.2520 -1.2419 0.2608
0.3334 -1.1993 0.8467
0.4276 -1.0336 0.7915
0.4777 -1.0534 0.7906
0.4869 -1.1252 0.7437
0.2813 -1.2825 0.1828
0.3164 -1.2151 0.1658
0.2170 -1.1952 -0.0344
0.1234 -1.2204 0.5912
0.3254 -1.2348 0.0874
-0.2285 -1.2480 -0.1422
0.0430 -0.6094 -0.0256
0.1658 -1.2303 0.0426
-0.2956 -1.2243 -0.1174
-0.5591 -1.2547 0.0535
0.1842 -1.2837 0.2731
0.1858 -1.3044 0.6369
0.2045 -1.2299 -0.0750
0.2069 -1.1851 -0.4810
0.0638 -1.2250 0.2624
-0.0451 -1.2443 0.0760
0.3286 -1.1606 -0.2165
0.3305 -0.7023 0.0073
0.1018 -0.1546 0.0724
0.1862 -1.2895 0.0459
0.0598 -0.9921 0.0070
0.3576 -0.9743 0.8670
0.3174 -1.0828 0.8602
0.2792 -1.0200 0.8659
-0.4017 -1.2098 0.1983
0.3977 -0.9186 0.0372
0.2629 -0.6477 0.0602
0.3248 -0.7921 0.0020
0.2734 -0.6394 0.0618
-0.0800 -0.1258 0.0135
-0.0316 -0.0800 0.0353
-0.4303 -1.2613 0.1471
-0.3140 -1.1614 -0.2309
-0.3188 -1.2757 -0.2047
0.1775 -0.9303 0.8633
-0.2129 -0.8073 0.1888
-0.0470 -1.0713 0.6305
-0.1770 -0.9793 -0.1705
0.3217 -0.8611 -0.0753
0.3604 -0.6676 -0.0344
0.3336 -0.6138 -0.0344
0.3644 -0.6685 -0.0474
-0.2503 -0.6205 -0.0106
0.1185 -0.7487 -0.0155
0.4130 -0.8423 -0.1428
0.3248 -0.8600 -0.0574
0.2722 -0.7991 -0.1363
0.3603 -0.6437 -0.0309
0.2770 -0.7491 0.0426
0.1025 -0.7795 0.0277
0.4017 -0.5643 0.3442
-0.0294 -0.1499 0.1116
0.2723 -0.6654 0.0597
-0.2811 -1.2742 -0.1344
0.2774 -0.6731 0.1065
0.1042 -0.8653 -0.2250
-0.0289 -0.2351 -0.0516
0.0588 -0.3712 0.1587
0.0455 -1.2470 0.3424
0.1130 -1.0968 -0.0895
-0.1845 -1.3444 0.3438
0.8984 -1.3407 0.5591
0.4366 -1.3821 0.3860
0.1206 -1.0134 0.9099
-0.1479 -1.2159 -0.2573
0.0460 -1.1610 0.4028
-0.2764 -1.2189 0.1082
0.5581 -0.7892 0.2968
0.4083 -1.2812 -0.0510
0.2929 -0.8781 0.0337
0.0435 -1.1792 0.4879
0.3359 -1.2836 0.1722
-0.1961 -1.2184 -0.3032
-0.4497 -1.2455 0.0617
0.0576 -1.3627 0.3957
-0.3373 -1.4298 -0.2544
0.2572 -0.7802 0.3282
0.3460 -1.3582 -0.1683
0.1622 -1.2280 -0.0752
-0.3523 -1.2750 -0.0645
0.2875 -0.8995 -0.1586
0.2675 -1.2364 1.2718
-0.4029 -1.3296 -0.0714
0.2680 -1.0829 0.6483
0.3752 -0.9922 0.7622
0.1647 -1.3160 -0.1067
0.5069 -1.2109 -0.2819
-0.1438 -1.1776 -0.1476
0.3225 -1.2708 0.0567
-0.3064 -1.2675 0.0693
0.0965 -1.2516 -0.3547
0.3611 -0.8721 -0.0110
0.0676 -1.1954 0.0012
-0.1889 -1.1934 -0.2579
-0.3411 -1.2860 0.3152
-0.2211 -1.1733 -0.1387
-0.3687 -1.2503 0.1471
0.2170 -1.2616 0.4052
-0.1033 -1.1987 0.2272
-0.4249 -1.2098 0.0445
0.0021 -1.3082 -0.3340
0.4315 -1.2358 0.0953
-0.3468 -1.2990 -0.0659
-0.4785 -1.1813 -0.1333
0.0679 -1.5133 0.3812
-0.5027 -1.1461 -0.1209
0.0450 -1.2695 -0.3492
0.2192 -1.3507 -0.0999
-0.3179 -1.2845 -0.0710
-0.3072 -1.1712 -0.1391
0.0373 -1.2884 -0.2729
0.4310 -1.4133 0.3593
-0.1195 -1.2797 0.5968
-0.2189 -0.8479 -0.0352
-0.2411 -1.2699 0.0728
0.1639 -1.3843 0.0414
0.1745 -0.8862 0.0605
0.1380 -1.2566 0.7368
0.1230 -1.3538 0.5714
-0.1211 -1.2704 -0.3076
0.4976 -1.1827 0.4286
-0.2629 -1.2077 0.0693
0.3004 -1.2567 -0.1741
0.3406 -0.9492 -0.0669
0.3893 -1.2708 -0.1846
0.1677 -1.2131 0.7336
0.2585 -1.1312 0.9202
-0.4285 -1.2200 -0.1063
-0.3035 -0.7738 0.0199
-0.0121 -1.3362 0.4778
-0.0831 -0.2718 0.0412
0.4857 -1.0342 0.8662
0.2331 -1.1982 -0.0078
0.3778 -0.7439 0.3911
0.8201 -1.3882 0.8901
0.4900 -1.0291 0.9764
-0.5173 -1.4577 0.1286
-0.5125 -1.3106 -0.1301
-0.4363 -1.3103 0.1341
-0.3476 -1.2427 -0.2108
-0.0934 -1.3325 -0.0653
0.4386 -1.1222 0.8058
-0.4995 -1.2131 0.0453
0.2130 -1.2207 -0.1960
-0.4580 -1.0647 0.0095
-0.3958 -1.2639 0.4513
0.2144 -1.2772 0.0927
-0.5150 -1.2823 -0.0757
-0.2954 -1.3831 0.8568
0.1604 -1.2086 0.0913
0.1074 -1.4177 -0.0991
-0.3073 -1.1787 0.2704
-0.4065 -1.2939 -0.1592
-0.0575 -1.2771 -0.3054
-0.2570 -0.6764 -0.0924
-0.0480 -1.2183 -0.1873
-0.1783 -1.2661 0.3568
-0.0063 -1.2441 0.0224
-0.1260 -1.3511 -0.2375
0.2640 -1.2330 -0.2344
-0.1943 -1.2159 0.0101
0.2422 -1.0343 1.0050
-0.0674 -1.3033 0.1165
-0.1600 -0.8250 -0.0993
-0.1968 -1.2560 -0.1271
0.1528 -1.2692 0.9009
0.2185 -1.3468 -0.1765
0.1711 -1.3056 0.5363
-0.1601 -1.2318 0.3680
0.0276 -1.2075 -0.0834
-0.3171 -1.3232 -0.0052
0.3126 -1.1160 -0.1997
0.4290 -1.1037 0.2866
0.2716 -1.2689 -0.1232
0.4518 -1.1498 0.7927
0.1198 -1.2364 0.1147
0.2763 -0.9504 0.9691
-0.0073 -1.2437 0.4757
0.0409 -1.5080 0.9660
-0.1752 -1.5769 0.6465
-0.1213 -1.3391 0.7293
-0.4565 -1.2510 -0.1444
-0.2326 -1.5197 0.9457
0.3192 -0.9514 0.9368
-0.2697 -1.2699 0.3769
0.3010 -1.1071 1.0042
0.5164 -1.1816 0.8249
0.5307 -1.0743 1.0501
-0.6426 -1.4070 0.3104
0.2221 -0.6873 0.5481
0.3293 -0.9494 0.9517
0.3724 -1.2522 0.8315
0.3432 -1.2685 0.8015
0.0647 -1.1536 0.3498
-0.5737 -1.2763 0.0755
-0.5552 -1.2193 -0.0281
-0.4907 -1.1845 0.4273
-0.5687 -1.3590 0.1094
0.1774 -1.0395 1.2052
0.1276 -0.8968 1.1047
0.0061 -1.1881 0.5191
-0.0339 -1.2914 0.3254
0.0812 -1.3193 0.9129
0.1420 -1.1250 1.3452
-0.3849 -1.0544 0.7898
0.0334 -0.9144 1.1464
-0.4752 -1.1557 0.1974
-0.4812 -1.3086 0.1339
-0.4381 -1.2320 0.1073
-0.4885 -1.4024 -0.0585
-0.3429 -1.2866 0.1838
-0.3066 -1.0521 0.3655
-0.3949 -1.0956 0.2221
-0.4379 -1.5455 0.2377
0.4091 -0.9188 0.9469
0.3907 -0.9197 1.0145
0.2430 -0.7794 0.7277
0.3353 -0.9484 0.9155
0.3160 -1.0766 0.8453
0.2657 -1.0365 0.8800
0.2761 -1.1820 0.9410
0.0618 -1.0718 0.4933
-0.0159 -1.3599 0.7695
-0.2066 -1.2105 0.6701
-0.3536 -1.1800 -0.0644
-0.3680 -1.3088 0.1488
-0.4525 -1.2215 0.1970
-0.4407 -1.0845 0.4590
-0.5167 -1.2828 0.2715
-0.4781 -1.2547 0.8930
-0.5561 -1.2838 0.3237
-0.5694 -1.2914 0.2093
0.4374 -1.0075 0.8576
-0.5436 -1.3604 0.8221
0.0831 -1.5747 0.4326
0.0807 -1.3674 0.4669
0.2040 -0.9362 0.6510
0.2183 -0.9869 0.9165
0.1717 -0.9840 1.1249
0.1715 -1.0930 1.4065
0.0426 -0.7854 1.0124
-0.3982 -0.6972 0.0808
-0.6200 -1.2387 0.1169
-0.6721 -1.2903 0.6449
-0.7124 -1.3830 0.1228
-0.7221 -1.3863 0.2591
-0.7193 -1.1291 0.3061
-0.7805 -1.2609 0.4572
-0.7765 -1.2579 0.2893
0.2589 -0.8889 1.0805
0.2160 -1.0472 1.2144
0.2203 -1.0518 0.9897
0.1706 -1.3122 1.1854
-0.5277 -1.3544 0.6511
-0.5253 -1.2485 0.6742
-0.5326 -1.2696 0.5584
-0.5436 -1.1683 0.4674
-0.6541 -1.2497 0.6300
-0.7220 -1.3881 0.1644
-0.7244 -1.3196 0.7091
-0.7378 -1.3544 0.5722
-0.7213 -1.3590 0.4640
0.1150 -1.2244 1.1470
0.4381 -1.2331 0.8197
-0.0867 -1.3650 0.7915
0.1782 -0.9365 0.9529
-0.9099 -1.2100 1.2749
0.3322 -0.8553 -0.0539
0.0551 -0.6324 0.7477
-0.8046 -1.2312 1.1450
-0.8782 -1.1721 1.1038
0.0765 -0.2623 1.3777
-0.1704 -0.2830 1.4161
-0.0830 -0.1433 0.1899
-0.7926 -1.2058 1.1970
0.1182 -0.7442 0.7191
-0.2278 0.0600 0.3821
-0.2724 0.2870 0.1286
0.3427 -0.8641 0.8463
0.2319 -0.8714 0.9148
-0.2572 0.3557 0.0887
-0.2952 0.2755 0.1485
-0.2491 0.3177 0.1724
0.2158 -0.8960 0.7803
0.3919 -1.1958 0.7578
0.2690 -0.9909 0.9501
0.4870 -0.9388 0.9468
0.3126 -0.8915 0.9204
0.1857 -0.4494 0.9799
0.4610 -0.8815 0.8807
0.0408 -0.4941 1.0576
0.2664 -0.9780 0.9692
0.2060 -1.0230 1.0260
-0.0096 -1.2500 0.7441
-0.7896 -1.0564 0.7054
-0.7266 -1.1911 1.1749
-0.5262 -1.2576 1.1552
-0.8490 -1.2549 1.3796
0.2433 -0.8567 0.9169
0.3016 -1.1527 0.7656
0.4183 -1.0328 0.7852
-0.1809 -0.5301 1.1005
0.1020 -1.2770 1.0807
0.2031 -1.1470 1.0414
0.1512 -0.6206 0.7012
0.2388 -0.9569 0.9752
0.0257 -0.5036 1.2455
-0.4887 -0.4615 1.2063
-0.1280 -0.5141 1.5607
-0.1765 -0.4943 1.4631
-0.4069 -0.4792 1.4016
-0.4761 -0.5033 1.4467
0.3212 -0.8209 0.8111
-0.2362 -0.5059 1.6160
-0.2830 -0.5128 1.2472
-0.0871 -0.5262 1.5104
-0.2680 -0.4983 1.0445
-0.4474 -0.5143 1.3237
-0.1407 -0.5583 1.4213
-0.4799 -0.4979 1.2835
-0.5142 -0.5015 1.2918
0.0213 -0.4997 1.2021
-0.5435 -0.5153 1.1222
0.1884 -0.4660 1.0101
-0.2652 -0.5537 1.1647
-0.4629 -0.5176 1.6595
-0.3914 -0.4834 1.5998
0.2447 -0.4914 1.5120
0.2287 -0.4921 1.5369
-0.4289 -0.4842 1.4766
0.2271 -0.5021 1.1677
-0.4656 -0.5267 1.5145
-0.2939 -0.4495 1.0274
0.2674 -0.9041 0.9456
0.2646 -0.9700 0.9641
0.2705 -0.3487 2.8621
-0.3133 -0.3751 3.0393
-0.6522 -0.3413 3.1316
0.8499 -0.2829 2.5804
-0.5414 -0.3036 3.1300
-0.6801 -0.2973 3.2009
-0.6493 -0.1215 2.6965
-0.1391 -0.5997 2.2254
0.5213 -0.0930 2.5962
-0.4983 -0.4648 1.0663
0.2115 -0.4861 1.0143
0.6992 -0.6928 2.9209
-0.7981 -0.7849 3.0174
-0.6709 -0.6596 3.1752
-0.6926 -0.7647 3.2676
-0.9934 -0.5622 2.9532
0.7314 -0.7675 2.8238
0.3339 -0.3441 3.4229
-0.1642 -0.3372 3.4080
0.6259 -0.3154 3.3713
0.0099 -0.3507 3.6833
-0.3054 -0.2954 3.5456
0.6128 -0.6721 2.9279
-0.4782 -0.3068 3.4154
-0.0365 -0.2572 3.5959
-0.9521 -0.1978 2.7938
1.0455 -0.3238 2.8684
-0.6550 -0.0826 3.0395
-0.4347 -0.4573 1.5399
-0.0699 -0.4907 1.5709
-0.2085 -0.4884 1.4367
0.2614 -0.5408 1.2720
-0.1012 -0.5186 1.2655
-0.2073 -0.7472 3.9182
1.2607 -0.8630 3.0276
1.3239 -0.8146 3.3395
0.2366 -1.0028 0.9530
-0.1431 -0.3124 3.6548
0.8816 -0.5860 2.8003
-0.4470 -0.4992 1.3078
-0.6347 -0.1652 3.4330
0.0711 -0.5459 1.3091
-0.0931 -0.4901 1.0442
-0.2677 -0.5065 1.0526
-0.4796 -0.5158 1.4662
-0.5047 -0.5106 1.2641
-0.2841 -0.5159 1.2848
-0.2123 -0.4490 1.0345
-0.2980 -0.5390 1.1127
0.1556 -1.0150 0.9774
0.2861 -0.5161 1.5662
-0.1737 -0.5129 1.4934
0.2093 -1.0174 0.9703
0.2475 -0.4943 1.5124
-0.7321 -1.2112 1.1887
0.3358 -0.6545 0.7860
0.3940 -0.8303 0.8929
0.5875 -0.4971 1.6124
0.2604 -0.9999 0.8226
-0.2140 -0.5215 1.3777
-0.8355 0.0225 3.0726
0.6170 -0.6286 2.9604
0.9687 -0.5594 2.8175
0.2049 -1.2107 0.9556
0.2462 -0.4748 1.1880
0.0487 -0.4988 1.4398
-0.2506 -0.4915 1.0748
-0.4337 -0.5051 1.5113
-0.5180 -0.5149 1.1908
-0.4860 -0.4709 1.1933
1.2960 -0.1186 3.2004
-0.1998 -0.2513 3.2559
-1.0199 -0.7270 3.1666
-0.5532 -0.3272 3.2455
0.2489 -0.8579 0.9193
0.2339 -0.8923 0.8941
0.2794 -0.9241 1.0989
0.0928 -1.1468 0.8192
-0.5305 -1.1227 0.9829
-0.8035 -1.2310 1.2109
0.0922 -1.2157 1.0479
0.2324 -0.5065 1.1077
0.0557 -0.4972 1.2577
-0.2655 -0.5750 1.1933
-0.2840 -0.4638 1.2184
1.1321 -0.4724 3.0518
0.6951 -0.2205 3.2890
0.9060 -0.7461 2.7675
0.5828 -0.3288 3.2234
0.3296 0.0180 3.0732
-0.1115 -0.0763 3.7317
-0.7565 0.0226 3.2036
-1.0250 -0.6012 3.0792
0.9882 -0.3672 2.8895
0.3050 -0.9759 0.6679
0.2818 -1.0090 0.6837
0.2755 -0.9305 0.7901
-0.7045 -1.1628 1.1687
-0.2234 -0.4964 1.2651
-0.4985 -0.4508 1.2276
0.2087 -0.5019 1.0507
-0.0418 -0.4785 1.0435
-0.0194 -0.5068 1.2620
0.8547 -1.1124 3.8794
0.4455 -0.3544 3.4663
0.5670 -0.1209 2.7394
0.0281 -0.3929 1.7498
-0.1853 -0.4854 1.0508
-0.4758 -0.5163 1.5432
-0.3115 -0.3770 3.0620
-0.5154 -0.4897 1.0792
0.3368 -0.8435 0.8207
-0.4734 -0.4430 1.5288
0.3126 -1.0136 0.7091
0.0170 -0.5104 1.5968
0.2428 -0.4933 1.2849

