-0.0866 -1.4910 -0.8675
-0.0946 -1.4925 -0.9152
-0.2799 -1.4982 -0.7868
-0.2422 -1.4168 -0.5260
-0.1066 -1.5196 -0.7602
0.0878 -1.4406 -0.5160
-0.4378 -1.4898 -1.3904
-0.4725 -1.5002 -0.9610
-0.0547 -1.4536 -1.0748
-0.1754 -1.5536 -0.8789
-0.5807 -1.5021 -1.4060
0.2345 -1.5531 -1.2146
-0.2973 -1.2910 -2.0120
-0.6556 -1.5027 -1.1357
-0.6472 -1.5324 -1.0290
-0.1998 -1.4166 -1.4782
-0.1828 -1.5668 -1.2522
-0.3428 -1.4742 -1.0095
-0.1966 -1.4674 -0.3366
0.1845 -1.2786 -0.9557
0.1890 -1.6593 -1.5842
-0.6184 -1.4426 -0.5499
-0.5855 -1.5377 -0.3183
-0.5285 -1.3903 -0.7640
-0.4995 -1.5638 -1.3399
-0.0054 -1.4609 -1.1759
-0.0986 -1.3923 -0.8708
-0.3467 -1.5218 -0.6704
-0.7944 -1.4551 -1.7577
-0.7612 -1.3636 -2.1087
-0.8764 -1.5153 -1.2590
-0.7997 -1.3833 -1.2545
-0.9218 -1.5787 -1.4690
-0.2153 -1.5459 -1.1801
-0.2004 -1.4698 -0.9949
-0.2092 -1.3641 -0.5957
-0.9340 -1.7018 -0.9817
-0.7904 -1.5715 -0.8988
-0.2816 -1.4704 -0.5152
-0.2572 -1.4992 -1.2998
0.1993 -1.4824 -1.2430
0.4295 -1.6424 -1.1278
-0.9212 -1.5394 -1.2199
-0.1323 -1.5682 -0.8281
-0.1922 -1.5459 -0.8861
-0.3544 -1.5339 -1.0072
-0.9471 -1.5555 -0.9298
-0.9643 -1.5777 -0.9908
0.2011 -1.5712 -0.4233
-0.4803 -1.5395 -1.0304
-0.0565 -1.4868 -0.7918
-0.1530 -1.4091 -1.2846
-0.2169 -1.5287 -1.0658
-0.3450 -1.6351 -1.1314
-0.1903 -1.5669 -0.7013
-0.9155 -1.5390 -1.1556
-0.7877 -1.5833 -0.6259
-1.1916 -1.5462 -2.1628
-0.3356 -1.4794 -1.1828
-0.1588 -1.5425 -0.5972
0.0973 -1.3782 -1.3416
0.2205 -1.4752 -0.9532
0.2068 -1.4429 -0.7624
0.2148 -1.3781 -1.5340
0.3164 -1.2532 -1.4224
0.3897 -1.4467 -1.1308
-0.0932 -1.4380 -1.4875
-1.4932 -1.6436 -2.1027
-0.0014 -1.4334 -0.5722
-0.2139 -1.5612 -0.6003
-0.5530 -1.5594 -0.6757
-0.8714 -1.5139 -0.7862
-0.8243 -1.4776 -1.7539
-0.8435 -1.5773 -1.6963
-0.1083 -1.4805 -0.8668
-0.3073 -1.4102 -0.1623
-0.1319 -1.5537 -0.7685
-0.2865 -1.5365 -1.4804
-1.2618 -1.6049 -1.6166
-0.4532 -1.5065 -0.7919
-0.1733 -1.5159 -0.6463
0.1566 -1.4163 -1.1569
-0.7485 -1.4991 -0.6521
-0.2927 -1.4118 -0.6503
-0.3812 -1.4231 -1.0461
0.1788 -1.4196 -0.2900
-0.6497 -1.5900 -0.8516
-0.9051 -1.5154 -0.8284
-1.1068 -1.5405 -1.2514
-0.7612 -1.4457 -0.6506
-1.2768 -1.5428 -2.1662
-0.6409 -1.4857 -0.4019
-0.8915 -1.4772 -1.1837
-0.7221 -1.5336 -0.9050
-0.5092 -1.3731 -2.0419
0.0865 -1.5810 -0.4590
0.2175 -1.0174 -0.9350
0.3228 -1.4513 -1.0429
0.4030 -1.5229 -1.1643
0.4128 -1.4051 -1.2679
0.4184 -1.3419 -0.6784
-0.5432 -1.6612 -1.2334
-0.2812 -1.5713 -1.2292
-0.3610 -1.5428 -1.3782
-0.3101 -2.0717 -0.7749
-0.2073 -1.5408 -0.5425
-0.5371 -1.5323 -1.3719
-0.7649 -1.5200 -0.5627
-0.3386 -1.4933 -0.5139
-0.9621 -1.5194 -1.1030
-0.3025 -1.5356 -0.6723
-0.7022 -1.5861 -0.6156
-0.6636 -1.5053 -0.6271
-0.1746 -1.6000 -0.8212
-0.2113 -1.5074 -1.1117
-0.6498 -1.4937 -0.7601
0.1895 -1.4975 -0.5464
-0.8967 -1.6428 -0.6442
-0.9711 -1.6113 -1.6677
0.2692 -2.5420 -0.5091
-0.2575 -1.4725 -0.6657
-0.2048 -1.5040 -1.3111
-0.2033 -1.4929 -0.3294
0.0366 -1.5388 -0.9842
0.0550 -1.6504 -0.6772
-0.2250 -1.4028 -0.4141
-0.0998 -1.5783 -0.8330
-0.0219 -1.4270 -1.0475
-0.8291 -1.5369 -0.6644
-1.0531 -1.3590 -1.5145
-0.4156 -1.4257 -0.9971
-0.3414 -1.5063 -0.6331
-0.9895 -1.5604 -1.0610
-0.0506 -1.5391 -0.7003
-0.9646 -1.4754 -1.0387
-0.4122 -0.7402 -1.3327
-0.7750 -1.5497 -0.7816
-0.3577 -1.5568 -1.4042
-0.2295 -1.5446 -0.9177
-0.1072 -1.5682 -0.6472
-0.1249 -1.2987 -1.4399
-0.5259 -1.4432 -1.2556
-0.5410 -1.5424 -1.3720
0.0755 -0.9657 -1.3963
-0.5732 -1.5464 -1.4141
0.4766 -1.4816 -1.3992
0.2879 -1.6555 -2.0780
0.2679 -1.4803 -1.7850
0.0820 -0.4845 -1.0892
-0.6940 -1.3885 -1.5461
-0.0648 -0.6614 -0.7324
-0.2995 -1.6575 -1.3056
-0.1082 -1.5218 -0.7240
-0.5702 -1.6812 -2.3210
-0.0729 -1.4209 -1.4653
0.1704 -1.5788 -0.4157
-0.2038 -1.6222 -1.7634
-1.0499 -1.5258 -1.9686
-0.9680 -1.6039 -1.6120
-0.0278 -1.4803 -1.3892
-0.5392 -1.7186 -2.0052
0.1619 -1.5461 -1.2315
-0.2591 -0.9426 -0.7419
-0.5340 -1.5143 -1.2564
0.2931 -1.5712 -0.9091
0.2754 -1.5571 -0.9826
0.2158 -2.2488 -1.9805
-0.8929 -1.5025 -1.1054
-0.7911 -1.5649 -0.9868
-0.9111 -1.6301 -2.0596
0.4681 -1.5870 -0.7013
0.3769 -1.4948 -1.8618
-0.4512 -1.4700 -1.2969
0.4431 -1.3893 -1.8057
-0.0856 -0.9773 -1.3160
-0.1900 -1.5029 -1.0149
-0.4787 -1.5017 -0.6215
-0.4599 -1.3700 -1.3266
-0.6322 -1.5223 -0.5071
-0.3409 -1.5458 -0.6699
-0.2241 -1.1436 -0.5664
-0.4562 -1.2872 -1.2961
-0.3186 -1.5269 -0.7955
-0.2487 -1.6483 -0.5052
-0.2760 -1.5015 -1.2872
0.5085 -1.5936 -0.7299
-0.3451 -1.4795 -1.0303
0.0580 -1.5553 -0.9973
0.5262 -1.4199 -1.1193
0.3762 -1.4916 -1.1101
-0.5879 -1.4916 -0.6948
-0.6481 -1.4781 -0.9663
-0.5443 -1.5147 -0.7806
-0.8647 -1.6492 -1.4837
-0.6196 -1.4417 -1.5431
-0.4784 -1.5927 -1.5230
-0.2499 -1.4714 -1.2906
-0.1368 -1.4208 -1.8462
0.1987 -1.4541 -0.7348
-0.0247 -1.4741 -1.8811
0.3655 -1.4255 -0.5154
0.4564 -1.4618 -1.1001
0.4386 -1.4156 -1.1517
0.1627 -1.5696 -0.5946
0.4460 -1.3878 -1.8567
-0.1042 -1.4793 -1.9349
-0.1380 -1.4284 -1.4828
-0.1186 -0.9610 -0.9683
-0.2999 -1.4044 -1.1904
-0.6512 -1.4863 -1.0712
-0.9671 -2.9017 -1.8153
-0.5883 -1.4989 -1.0896
0.5343 -1.3493 -1.1484
-0.7976 -1.6086 -1.4408
-0.6683 -1.5976 -1.8967
-0.4655 -1.4371 -2.1195
-0.6053 -1.4667 -0.9625
-0.4142 -1.4949 -1.2048
0.1683 -1.5217 -1.3478
-0.2150 -1.4998 -1.4898
-0.0047 -1.4368 -2.0424
0.1193 -1.4199 -1.2042
0.4997 -1.5742 -0.6868
0.4635 -1.5767 -1.7039
0.5356 -1.4676 -0.6090
0.4341 -1.4333 -0.8422
0.5393 -1.4227 -1.1896
0.3054 -1.4535 -0.9786
-0.4446 -1.1314 -0.9723
-0.6363 -1.5206 -1.8564
-0.6569 -1.5886 -1.9950
-0.3890 -1.4587 -1.1660
-0.2147 -1.4129 -0.8084
-0.2636 -1.4219 -1.3263
-0.2382 -1.3611 -1.4540
-0.0056 -1.4803 -1.1688
-0.0005 -1.3846 -1.7650
0.2587 -0.8760 -0.5817
0.2850 -1.2874 -1.4747
0.3098 -1.4957 -1.7407
0.5187 -1.4719 -0.7204
0.4134 -1.3817 -2.0559
0.5456 -1.7788 -0.3159
0.6599 -1.4105 -1.0738
0.6208 -1.4133 -0.5126
0.1736 -1.3562 -0.4274
-0.1696 -2.6026 -0.3339
-0.5735 -1.6085 -1.3940
-0.4956 -1.4839 -1.2876
-0.6279 -1.8789 -1.2840
-0.3274 -1.3596 -0.7928
-0.4295 -1.4841 -0.6578
-0.4278 -1.5743 -1.4849
-0.3867 -1.4866 -1.5702
-0.4258 -1.9619 -1.2251
0.5672 -1.4328 -0.7936
-0.3018 -1.7409 -0.7733
-0.1605 -1.3592 -0.5694
0.5634 -1.4470 -1.1291
-0.3478 -1.4913 -1.4945
-0.3058 -1.5066 -1.4456
-0.3991 -1.9533 -1.7293
0.4785 -1.5067 -1.6929
-0.2890 -1.5829 -1.6144
0.3951 -1.4156 -0.3975
0.6162 -2.8400 -0.6307
0.2877 -1.3300 -1.7131
0.2494 -1.3918 -0.9139
0.1667 -1.4201 -1.3914
0.1462 -1.4548 -1.1724
0.1328 -1.0318 -1.5259
0.2810 -1.3633 -1.6647
0.3355 -1.3748 -1.4830
0.3795 -1.4365 -0.6434
-0.5567 -1.5838 -1.6850
-0.5768 -1.6088 -1.8968
-0.2611 -1.3980 -0.7660
-0.2403 -1.4527 -0.6161
-0.3552 -1.3985 -1.4947
-0.3276 -1.4685 -1.3429
-0.2956 -1.4160 -1.2030
-0.2676 -1.5291 -1.2719
-0.1019 -1.4794 -1.3265
-0.1321 -1.4926 -2.1480
0.1960 -1.4899 -1.6337
0.2618 -1.3591 -1.7706
0.3303 -1.5425 -1.2505
0.3682 -1.3505 -0.7067
0.5335 -1.4400 -1.5474
0.5557 -1.1188 -1.8631
-0.3056 -1.3193 -2.1318
-0.2307 -1.1656 -1.9779
-0.2611 -1.3709 -2.0732
-0.0064 -0.6616 -0.8413
-0.2188 -1.4911 -1.3225
-0.1975 -1.4437 -1.1564
-0.2211 -1.6519 -1.1604
-0.1693 -1.5362 -0.9682
-0.1657 -1.4485 -1.3490
-0.2816 -2.0967 -1.1585
-0.1137 -1.4371 -1.4098
-0.0986 -1.4063 -1.0426
-0.0878 -1.3955 -1.2743
-0.0964 -1.4716 -1.4486
-0.0703 -1.4323 -1.0204
-0.1611 -2.0350 -0.7117
-0.0923 -1.5884 -1.1894
-0.0530 -1.4876 -1.1502
-0.0223 -1.3859 -1.8969
-0.0253 -1.4562 -1.4731
0.0085 -1.3486 -1.1752
0.0208 -1.4810 -1.1524
0.1246 -1.2048 -1.6898
0.1199 -1.3545 -1.5155
0.1435 -1.5172 -1.3581
0.1969 -1.4124 -1.8416
0.2259 -1.3824 -1.4412
0.2936 -1.3428 -0.9113
0.3723 -1.4502 -1.1395
0.4207 -1.7031 -0.8892
0.4085 -1.3801 -1.2787
0.3217 -0.8273 -1.2767
0.4835 -1.3943 -1.0750
0.5093 -1.3822 -1.3275
0.4417 -1.4056 -0.4938
0.5465 -1.4270 -0.9437
0.5960 -1.4239 -1.3414
0.5525 -1.3797 -0.9887
0.5716 -1.3626 -1.3652
-0.3305 -1.4601 -1.1432
-0.1170 -1.3400 -2.0936
0.0686 -1.3447 -2.0440
0.2780 -0.9400 -1.3468
0.6820 -1.4451 -1.8025
0.5955 -1.4304 -0.4821
0.7003 -1.4140 -0.7619
0.0882 -0.4714 -1.1539
0.1276 -1.4170 -1.1628
0.2954 -1.1264 -1.9487
0.3512 -1.4871 -2.3270
0.4670 -1.6997 -2.6109
0.4486 -1.4393 -1.7410
0.6253 -1.2822 -2.0253
0.3256 -1.2685 -2.4850
0.3165 -1.2045 -1.9822
0.3935 -0.6815 -1.6833
0.5077 -1.6003 -1.4107
0.8735 -0.7939 -1.5491
0.5243 -1.0822 -2.1374
0.3726 -1.6112 -1.7241
0.2065 -1.5066 -1.0233
0.6730 -1.3251 -2.1782
-0.7891 -1.0769 -1.5274
-0.3859 -2.3833 -2.1336
-1.2246 -1.5029 -1.7189
-0.1677 -1.4935 -1.2968
-0.0801 -1.3784 -1.3889
-0.1508 -1.6441 -1.5454
0.0317 -1.3800 -1.6756
-0.1690 -1.5375 -1.1761
0.0970 -2.0736 -0.8821
0.0978 -1.9962 -0.9995
-0.1238 -1.5699 -1.5589
0.1745 -1.3492 -1.8524
-0.0827 -1.6469 -1.2503
0.6419 -0.6200 -1.2667
-0.2281 -1.9502 -1.6999
0.1886 -1.2856 -1.6313
0.0086 -1.8858 -1.5687
0.1575 -1.2552 -1.4290
-0.2547 -2.4710 -1.1435
0.0577 -1.5794 -1.2431
0.0327 -1.3299 -1.0532
-0.0172 -1.4182 -0.9682
0.1722 -1.5419 -1.5020
0.2043 -1.3477 -1.4690
0.6805 -0.6168 -1.4548
0.1672 -1.5028 -1.3411
0.1659 -1.5385 -1.2163
0.0787 -2.1371 -1.3398
0.7562 -0.6034 -1.2275
0.0759 -1.6394 -1.0607
0.1458 -1.6464 -1.2498
0.0215 -1.9037 -1.0278
0.1744 -1.3650 -1.1248
0.1630 -1.6517 -1.2338
0.9214 -0.7592 -1.5036
0.2357 -1.3886 -1.1252
0.5623 -1.5315 -1.1448
0.7532 -0.5193 -1.2446
0.2819 -1.5222 -1.1593
0.6565 -1.4798 -1.3416
0.2584 -1.4840 -1.0864
0.8006 -0.5729 -1.2613
0.4909 -1.6607 -1.6543
0.2390 -1.5196 -0.9762
0.9356 -0.5774 -1.3766
0.2275 -1.9930 -1.0213
0.2419 -1.5469 -0.9273
0.6492 -0.6255 -1.0114
0.5485 -1.8866 -1.5015
0.3142 -1.5809 -0.9559
0.3096 -1.5205 -0.9198
0.5645 -1.4890 -1.3841
0.0371 -2.1434 -1.3586
0.5452 -1.5288 -1.3076
0.2206 -1.4779 -2.2877
0.5581 -1.7495 -1.2425
0.1803 -1.5950 -1.9795
0.2124 -1.3045 -1.5174
0.4445 -1.4562 -1.4405
-0.2943 -1.9608 -1.4407
-0.2300 -1.9238 -1.5765
0.1116 -1.4657 -1.3476
0.1151 -1.3458 -1.2560
0.1974 -2.1034 -1.3129
0.2732 -1.4676 -1.0317
0.5188 -1.8563 -1.2449
0.7187 -0.5771 -1.4269
0.7845 -0.8110 -1.2864
0.8581 -0.7215 -1.4215
0.0163 -0.7233 -0.6597
-0.1793 -1.3947 -1.0772
0.0941 -1.4346 -1.7540
0.3498 -1.2542 -2.1535
0.1558 -1.2254 -1.8996
0.0903 -1.7860 -2.0670
0.3817 -1.3544 -2.4382
0.3365 -1.3220 -2.2876
0.3324 -1.2169 -1.9921
0.3372 -1.0497 -1.9516
0.3596 -1.4211 -2.3144
0.3447 -1.1789 -1.9905
0.3982 -1.4635 -2.4000
0.3430 -1.3918 -2.0248
0.4204 -1.0618 -1.9972
0.3139 -1.2686 -1.7822
0.4307 -1.1736 -1.9812
0.4189 -1.2638 -2.0102
0.2609 -1.3686 -1.6409
0.3883 -1.3158 -1.9280
0.4874 -1.0421 -1.9876
-0.2430 -2.8590 -0.9263
0.1534 -1.3163 -1.2000
0.4932 -1.2185 -1.9181
0.4174 -1.2820 -1.7032
0.4946 -1.0827 -1.7871
0.5062 -1.8323 -2.0992
0.5059 -1.8815 -2.0028
0.6062 -1.1863 -1.8796
0.1860 -1.3900 -1.0367
0.3798 -1.0972 -2.1563
0.3851 -1.3997 -2.5250
0.3772 -1.6534 -2.7385
0.3143 -1.2353 -1.9373
0.3584 -1.2785 -2.0330
0.3562 -1.4615 -2.0516
0.4068 -0.9645 -1.9094
0.4159 -1.3991 -1.9801
0.4746 -1.3670 -2.0352
0.5326 -1.2005 -2.0690
0.8090 -1.7393 -0.8988
-0.0254 -1.3544 -1.1845
-0.2835 -1.6425 -1.3796
0.0637 -1.3797 -1.2551
0.0240 -1.9199 -1.5066
0.2254 -0.8378 -1.2260
0.1352 -1.7523 -1.4948
-0.0209 -1.4887 -0.9211
-0.0155 -1.3939 -0.8869
-0.2403 -1.4470 -1.0290
0.1813 -1.2749 -1.1480
0.1982 -1.2776 -1.1325
0.3355 -1.3668 -1.3638
0.4225 -1.5179 -1.5996
-0.1954 -1.6879 -1.4841
0.4280 -1.0948 -1.3831
0.5864 -1.4162 -1.3229
0.5486 -1.3902 -1.1825
0.3485 -0.3628 -0.9147
0.6891 -0.5965 -1.2610
0.8467 -0.6374 -1.4735
0.5536 -1.4023 -0.9276
0.2151 -0.9876 -1.0877
0.7367 -0.6107 -1.2818
0.3323 -1.2895 -2.0539
0.6524 -1.1258 -2.2407
0.4875 -0.8001 -1.6716
0.5695 -0.9711 -1.8458
0.5966 -1.0352 -2.0327
0.5833 -1.3905 -2.3138
0.5736 -1.1554 -1.8516
0.2264 -1.5837 -2.2282
0.4523 -0.9591 -2.0092
0.6632 -1.3676 -2.6214
0.1087 -1.3512 -1.6727
0.4360 -1.1021 -1.9590
0.2855 -1.3750 -1.7536
0.4541 -1.6496 -2.0307
0.3045 -1.4114 -2.3187
0.5627 -0.9353 -1.9033
0.4708 -1.2536 -1.9306
0.6373 -0.5857 -1.5029
0.6969 -0.6011 -1.2497
0.6403 -0.6212 -1.2695
0.4992 -1.0083 -1.9478
0.3839 -1.3866 -2.0157
0.3999 -1.2271 -2.2089
0.3176 -1.2872 -2.0152
-0.0873 -1.3430 -1.5665
0.0662 -1.0192 -1.2150
-0.1532 -1.4290 -1.4341
0.8460 -0.5966 -1.4030
0.7166 -0.6035 -1.2622
0.1371 -1.6686 -1.9722
-0.1219 -1.3534 -1.2404
0.1801 -1.3686 -1.9032
0.0316 -1.6313 -1.7752
-0.0581 -1.3094 -1.1023
0.2085 -1.4171 -2.0450
-0.0499 -1.3687 -1.4429
-0.2222 -1.8638 -0.9926
-0.0457 -1.3893 -1.0947
0.2853 -1.3091 -1.4640
0.0087 -1.4163 -1.4901
0.6021 -1.3221 -1.6458
-0.2503 -1.6899 -1.4141
0.3092 -1.4816 -1.7228
0.6962 -0.5758 -1.5122
-0.1617 -0.5264 -0.9990
0.3173 -1.3021 -2.5720
0.3479 -1.3599 -2.6249
0.5034 -1.5061 -0.9938
-0.2337 -1.6694 -1.3725
0.0479 -1.3713 -1.7608
-0.1431 -1.8883 -1.8128
-0.0740 -1.1543 -1.1502
0.1386 -1.4197 -1.9519
0.0138 -1.3500 -1.2132
0.0649 -1.2754 -1.2743
0.4570 -1.1463 -2.2690
0.0467 -1.3559 -1.2134
0.2826 -1.2342 -1.6042
0.1971 -1.3239 -1.3531
0.4685 -1.2071 -1.8740
0.4332 -0.5683 -1.6752
0.1658 -1.2820 -1.0942
0.4141 -1.3700 -1.5732
0.5595 -0.9359 -1.9274
0.2958 -1.2911 -1.2732
0.5692 -0.9700 -1.8832
0.2828 -0.6280 -1.1467
0.4355 -2.2447 -1.0397
0.3780 -1.3422 -1.9596
0.4641 -1.0901 -1.9089
0.2152 -1.3431 -2.4433
0.2816 -1.3644 -2.2984
0.0038 -0.8903 -1.5347
-0.1309 -1.3355 -1.7956
0.1320 -1.3133 -2.6232
0.0084 -1.5214 -2.4793
-0.1747 -1.3668 -1.5503
-0.1043 -1.4957 -1.9652
-0.0271 -1.2944 -1.8355
0.0285 -1.2491 -1.9430
-0.0796 -1.2747 -1.6048
-0.0946 -1.1901 -1.4265
0.0189 -1.3012 -1.9311
-0.0912 -1.3272 -1.5914
-0.0807 -1.0480 -1.2735
-0.0109 -1.0832 -1.4908
0.0029 -1.6201 -1.9351
0.2619 -1.4577 -2.5269
0.0926 -1.1514 -1.5918
0.2773 -1.4046 -2.2750
0.4018 -1.4083 -1.1171
0.4444 -0.8802 -1.3492
0.8959 -0.6418 -1.6952
0.4090 -0.8525 -1.9683
0.4752 -0.9365 -2.0623
0.0307 -1.4184 -2.0948
-0.0064 -1.3945 -1.8623
0.2787 -1.2895 -2.1931
0.3698 -1.2652 -2.3106
0.3528 -1.3356 -1.9547
0.3537 -1.2053 -0.9815
0.6737 -1.4001 -0.5419
0.3773 -0.8984 -1.9601
-0.1749 -1.5214 -1.8171
0.0852 -1.5560 -2.4882
0.2303 -1.2357 -2.1459
0.0646 -1.3656 -1.7293
0.3172 -1.1581 -1.9271
0.4270 -0.9573 -1.9520
0.1307 -1.5307 -1.3318
0.4276 -1.3347 -1.3966
0.6043 -0.5778 -1.2399
0.6233 -0.6107 -1.2326
-0.0690 -1.2323 -1.2996
0.3901 -0.9852 -1.9552
-0.1492 -1.4739 -1.8656
0.2230 -1.2414 -2.3396
0.0242 -1.1317 -1.6730
-0.0013 -1.2581 -1.7067
0.3200 -1.2711 -2.0265
0.1994 -1.1655 -1.5907
0.7054 -0.6814 -2.2774
0.2649 -1.1554 -1.5664
0.2632 -1.1608 -1.5347
0.1856 -1.1648 -1.3605
0.6172 -0.4447 -1.8677
0.8046 -0.6806 -2.1959
0.3888 -1.1429 -1.1223
0.2943 -1.3120 -1.7637
0.2671 -1.1401 -1.5381
-0.0923 -1.2938 -1.5664
0.0441 -1.3766 -1.6939
0.0631 -1.4438 -1.6771
0.8215 -0.5703 -1.6674
0.5518 -0.5769 -1.2852
0.7326 -0.4386 -1.4905
0.8136 -0.5871 -1.4798
0.9744 -0.5555 -1.5753
0.9023 -0.5656 -1.4775
0.0406 -1.4564 -1.6946
0.6093 -0.5781 -1.2329
0.3232 -1.1777 -1.9050
0.6512 -0.6212 -1.5206
0.6981 -0.7219 -1.8931
0.3685 -1.1848 -2.1834
0.7342 -0.6647 -1.5370
0.8023 -0.5769 -1.4734
0.8657 -0.6277 -1.5258
1.0275 -0.5156 -1.6827
0.9721 -0.5547 -1.5725
0.9309 -0.5467 -1.5040
0.7232 -0.6026 -1.4992
0.9816 -0.5620 -1.6400
0.7829 -0.5932 -1.4146
0.7980 -0.5950 -1.4113
0.9646 -0.6099 -1.4886
0.7192 -0.5835 -1.2684
0.6787 -0.5669 -1.2286
0.7039 -0.5750 -1.2353
1.0523 -0.5988 -1.4714
0.7384 -0.5684 -1.2394
0.7970 -0.6712 -1.2706
0.9544 -0.9190 -1.2762
0.9556 -0.6128 -1.5121
0.9663 -0.6103 -1.4866
1.0590 -0.6243 -1.5239
0.7744 -0.5781 -1.2753
1.1293 -0.6314 -1.5753
0.8084 -0.5899 -1.4091
0.6330 -0.5978 -1.4803
1.1200 -0.6512 -1.8049
0.8046 -0.5751 -1.3746
0.9152 -0.5914 -1.3371
1.1784 -0.5680 -1.4586
0.7728 -0.5830 -1.2357
1.0306 -0.6518 -1.3468
0.9212 -0.6526 -1.2686
0.8254 -0.6491 -1.2090
0.8316 -0.6009 -1.2058
0.7311 -0.7409 -1.2354
0.8375 -0.5660 -1.6586
0.8406 -0.5862 -1.6170
0.7960 -0.6409 -1.5319
0.9536 -0.6470 -1.4977
0.9313 -0.6451 -1.4814
1.1395 -0.6615 -1.5283
1.1697 -0.5837 -1.4781
0.8592 -0.6237 -1.6980
0.7733 -0.6212 -1.5348
0.7221 -0.2677 -1.3480
0.8211 -0.6356 -1.3344
1.0704 -0.5947 -1.3553
0.9073 -0.6103 -1.2901
0.8649 -0.6064 -1.2573
0.8388 -0.6399 -1.2503
0.8780 -0.5653 -1.2153
0.9207 -0.4736 -1.2108
0.6522 -0.6676 -1.5378
0.9884 -0.6536 -1.5231
1.0698 -0.6113 -1.4773
1.1061 -0.5910 -1.3632
0.7945 -0.5669 -1.2151
0.8683 -0.5790 -1.2269
0.9152 -0.6037 -1.2049
0.9962 -0.5978 -1.2173
1.0024 -0.6604 -1.2044
0.9365 -0.5922 -1.1884
0.6314 -0.5641 -1.4864
0.9319 -0.5998 -1.4652
0.8887 -0.6145 -1.3158
0.8056 -0.5964 -1.2200
0.8530 -0.5987 -1.1818
1.0672 -0.5859 -1.2005
0.9075 -0.5780 -1.1835
0.9030 -0.5667 -1.1686
1.0935 -0.5652 -1.1914
0.8860 -0.6021 -1.1054
0.8030 -0.6033 -1.0904
0.9109 -0.5910 -1.4317
0.8787 -0.5977 -1.3064
0.9299 -0.5747 -1.3136
0.6162 -0.5853 -1.2251
0.8055 -0.6216 -1.2321
0.8838 -0.5856 -1.2381
0.7375 -0.2134 -1.1990
0.8328 -0.5979 -1.1120
0.8179 -0.5810 -1.2631
1.0066 -0.5867 -1.4580
0.9238 -0.6030 -1.5983
0.9314 -0.5861 -1.5871
0.6653 -0.6000 -1.4985
0.9345 -0.7755 -1.6026
0.8847 -0.6008 -1.4870
0.9708 -0.5505 -1.5024
0.8968 -0.5276 -1.4773
0.9081 -0.5831 -1.4760
0.8284 -0.5943 -1.4629
0.9905 -0.6127 -1.4768
0.9974 -0.5542 -1.4740
1.1492 -0.5952 -1.4517
0.9098 -0.5937 -1.4147
0.9599 -0.6138 -1.3431
0.8699 -0.6061 -1.3212
1.0956 -0.5769 -1.3518
0.9321 -0.5642 -1.3333
0.8546 -0.5868 -1.3098
0.8206 -0.6042 -1.2956
0.8516 -0.5520 -1.2779
0.8846 -0.6245 -1.2495
0.6117 -0.6011 -1.2310
0.9008 -0.6001 -1.2506
0.8592 -0.5927 -1.2423
0.6165 -0.5744 -1.2232
0.8255 -0.5980 -1.2311
0.8920 -0.6036 -1.2199
1.0073 -0.6037 -1.2100
0.9986 -0.5862 -1.2003
0.7623 -0.5996 -1.1824
1.1581 -0.5769 -1.2038
1.0755 -0.5927 -1.1849
0.7500 -0.5913 -1.1681
0.9695 -0.5906 -1.1740
1.1300 -0.6215 -1.1731
1.0991 -0.5983 -1.1757
0.9321 -0.5680 -1.1726
0.9186 -0.6286 -1.1474
0.7441 -0.5999 -1.1420
0.9435 -0.5947 -1.1258
0.8021 -0.5882 -1.1206
1.1356 -0.5916 -1.1118
0.8473 -0.5702 -1.1060
0.8558 -0.5879 -1.0801
0.8108 -0.5944 -1.1428
0.8192 -0.5957 -1.4761
0.6163 -0.5440 -1.2344
0.6158 -0.5762 -1.2323
0.8472 -0.7599 -1.0371
1.0094 -0.5794 -1.4742
0.9210 -0.5366 -1.5404
0.7867 -0.5796 -1.3765
0.8981 -0.5525 -1.3214
1.0560 -0.6045 -1.2402
0.8028 -0.5969 -1.2009
0.9928 -0.6070 -1.1866
1.0718 -0.5720 -1.1031
1.0362 -0.6008 -1.0896
0.8123 -0.5276 -1.0981
0.7887 -0.5761 -1.2384
0.8941 -0.5912 -1.0698
1.1970 -0.5768 -1.4559
0.8112 -0.5917 -1.1471
1.0768 -0.5640 -1.1517
1.0524 -0.5616 -1.1474
1.0413 -0.6374 -1.6632
0.8009 -0.2379 -1.4218
0.9048 -0.6189 -1.6355
0.8343 -0.5764 -1.5954
1.1792 -0.6236 -1.6932
1.0872 -0.5543 -1.6281
0.9920 -0.5888 -1.6127
0.9397 -0.5799 -1.5967
1.1410 -0.6106 -1.6433
0.9193 -0.5786 -1.5635
0.8366 -0.5959 -1.5493
0.7999 -0.5942 -1.5396
1.0032 -0.6063 -1.5924
0.9197 -0.6003 -1.5703
0.8338 -0.6295 -1.5427
0.8472 -0.5853 -1.5174
0.9210 -0.3933 -1.4490
0.9294 -0.5860 -1.5276
0.6594 -0.5879 -1.4938
0.9027 -0.6262 -1.5220
0.8744 -0.5858 -1.5094
0.9723 -0.5978 -1.5191
0.9088 -0.5865 -1.5170
0.8150 -0.5845 -1.4846
0.9902 -0.5959 -1.4647
0.9167 -0.5806 -1.4476
0.8947 -0.5790 -1.4564
1.0963 -0.5878 -1.4672
0.9989 -0.6103 -1.4732
1.0057 -0.5933 -1.4674
0.6361 -0.6311 -1.4289
0.8582 -0.2619 -1.3975
1.0115 -0.6086 -1.4407
1.0550 -0.5457 -1.4367
0.7763 -0.4352 -1.3594
1.0765 -0.5994 -1.3804
1.1352 -0.6057 -1.3598
0.9535 -0.6107 -1.3500
0.8774 -0.5700 -1.3194
0.9385 -0.6033 -1.3165
0.8759 -0.6000 -1.3075
0.9048 -0.5809 -1.2975
0.8592 -0.5970 -1.2908
0.9134 -0.5841 -1.2801
0.8490 -0.5722 -1.2719
0.7825 -0.4794 -1.2537
1.1709 -0.6043 -1.2264
0.8125 -0.5800 -1.2396
1.1252 -0.5930 -1.2140
0.8636 -0.5763 -1.2262
1.0611 -0.5954 -1.2041
0.8467 -0.5986 -1.1922
0.9109 -0.5867 -1.1705
1.1053 -0.5837 -1.1577
1.1421 -0.6024 -1.0970
0.7663 -0.5710 -1.1139
0.8100 -0.5917 -1.0945
1.0680 -0.5731 -1.0582
0.8064 -0.5610 -1.3475
1.1545 -0.5924 -1.4615
1.1731 -0.5921 -1.4666
0.7756 -0.5882 -1.2347
1.0547 -0.6044 -1.6270
0.8891 -0.5963 -1.4825
0.8512 -0.5978 -1.4877
0.8274 -0.5788 -1.4906
0.8277 -0.6048 -1.4947
1.1104 -0.5801 -1.1980
0.9455 -0.6056 -1.5298
0.9499 -0.5915 -1.6306
0.8694 -0.6072 -1.5619
0.9037 -0.5720 -1.5464
0.7842 -0.6024 -1.5064
0.8355 -0.5991 -1.4435
1.1026 -0.6078 -1.3377
0.7689 -0.6579 -1.2358
0.7131 -0.5912 -1.2537
0.6056 -0.6114 -1.2484
1.0863 -0.6062 -1.1279
0.8921 -0.5777 -1.1228
1.2209 -0.6277 -1.6905
0.8403 -0.3090 -1.4867
0.7540 -0.1348 -1.3818
0.6046 -0.5147 -1.5523
0.9749 -0.6043 -1.6097
0.8666 -0.6390 -1.6017
0.9005 -0.5657 -1.5890
1.0485 -0.5861 -1.5749
0.9245 -0.5548 -1.5599
0.7281 -0.5673 -1.5243
0.9256 -0.5545 -1.5279
0.8947 -0.5815 -1.5000
0.7984 -0.5670 -1.4896
1.0543 -0.6064 -1.4969
1.0395 -0.5837 -1.4769
0.8976 -0.5638 -1.4718
0.9731 -0.5862 -1.4622
0.9567 -0.5878 -1.4645
1.1036 -0.5768 -1.4556
1.0318 -0.5839 -1.4561
1.1597 -0.5824 -1.4540
1.1822 -0.5897 -1.4405
0.9484 -0.5700 -1.4406
0.9075 -0.2511 -1.3428
0.9066 -0.5847 -1.2805
0.8811 -0.5911 -1.2437
0.9025 -0.6079 -1.1748
0.8612 -0.6260 -1.1730
0.9179 -0.6031 -1.1500
1.1763 -0.6270 -1.1025
1.0903 -0.5884 -1.0958
0.9389 -0.5831 -1.0931
0.6309 -0.5872 -1.5025
0.8205 -0.5885 -1.3898
0.9711 -0.5946 -1.2216
0.9241 -0.6041 -1.2052
0.9108 -0.5967 -1.2067
0.8070 -0.6003 -1.2167
0.8142 -0.6049 -1.2272
1.1280 -0.5903 -1.4480
0.8092 -0.5961 -1.2400
1.1344 -0.5720 -1.4628
0.9938 -0.6021 -1.2018
1.0841 -0.5677 -1.5214
0.6601 -0.5539 -1.4957
0.9195 -0.5950 -1.5006
0.7274 -0.5892 -1.4915
1.0039 -0.5825 -1.4793
1.0067 -0.5835 -1.4656
0.9206 -0.5555 -1.3157
0.9432 -0.5960 -1.2290
0.9605 -0.5792 -1.2022
1.0225 -0.5752 -1.1883
0.9120 -0.5970 -1.2055
1.0995 -0.5867 -1.0678
0.8067 -0.6562 -1.1016
0.9162 -0.5966 -1.6404
1.1341 -0.5939 -1.6600
0.8776 -0.5762 -1.6195
0.8668 -0.5807 -1.6217
1.0556 -0.4814 -1.5728
0.5940 -0.6514 -1.5669
1.0428 -0.5876 -1.5484
0.7957 -0.5852 -1.5096
0.6887 -0.5839 -1.4879
1.0173 -0.6032 -1.4753
1.2720 -0.6595 -1.4415
0.8245 -0.5977 -1.4141
1.0168 -0.7469 -1.3984
0.9133 -0.5957 -1.3821
0.8375 -0.6113 -1.3640
0.8469 -0.2719 -1.3611
1.2627 -0.7581 -1.3242
0.9221 -0.5429 -1.3298
0.8862 -0.5872 -1.2761
0.9204 -0.6058 -1.2416
0.7701 -0.6008 -1.2326
0.9165 -0.5903 -1.2058
0.8209 -0.5759 -1.2236
1.1011 -0.5899 -1.1699
0.7416 -0.6053 -1.2081
0.6517 -0.6179 -1.1955
0.9601 -0.5996 -1.1529
0.6592 -0.6023 -1.1768
0.7244 -0.6008 -1.1675
0.5940 -0.5883 -1.1538
1.0749 -0.5864 -1.0450
0.7182 -0.5694 -1.4901
0.8364 -0.7494 -1.0555
1.0984 -0.5942 -1.1929
0.9330 -0.5939 -1.2119
1.0012 -0.5897 -1.2092
1.0189 -0.5914 -1.4718
1.2121 -0.5896 -1.4525
0.9402 -0.5842 -1.4916
0.7006 -0.5876 -1.4864
1.1424 -0.5575 -1.6082
0.9517 -0.5854 -1.4797
0.8915 -0.6171 -1.3918
0.7931 -0.6188 -1.3660
0.8960 -0.5653 -1.3170
0.9918 -0.5704 -1.1994
0.6199 -0.5744 -1.2170
0.8370 -0.6665 -1.1565
0.8295 -0.5855 -1.1085
0.9714 -0.5841 -1.6480
0.8930 -0.5891 -1.6391
0.9886 -0.5987 -1.6247
0.9640 -0.5812 -1.5754
0.8703 -0.5844 -1.5176
1.1224 -0.5661 -1.4537
1.1311 -0.5765 -1.4443
0.9145 -0.5918 -1.3373
0.6961 -0.6360 -1.2826
0.7104 -0.5841 -1.2310
0.6288 -0.5997 -1.4822
0.8031 -0.5930 -1.4819
0.8513 -0.6002 -1.4740
0.8562 -0.5707 -1.6373
0.9010 -0.5722 -1.5344
0.9276 -0.5917 -1.4618
0.9704 -0.5551 -1.4352
1.1450 -0.6176 -1.6249
1.1121 -0.6083 -1.6006
0.7411 -0.6156 -1.1554
0.9065 -0.5731 -1.1088
0.7409 -0.6121 -1.0980
0.8574 -0.5934 -1.0760
0.9647 -0.3713 -1.3670
0.7646 -0.1383 -1.3267
0.6823 -0.0244 -1.3718
0.7406 -0.2370 -1.4693
1.0133 -0.5940 -1.3655
0.7801 -0.4666 -1.1863
0.7249 -0.1613 -1.4493
0.7692 -0.1917 -1.3238
0.9198 -0.6125 -1.3344
0.8648 -0.5759 -1.3534
0.9005 -0.5805 -1.5005
0.9202 -0.6013 -1.2046
0.9256 -0.5712 -1.1850

