0.5634 -0.7615 0.4711
1.9149 -1.7458 1.8616
5.8180 -7.4000 1.1912
0.4875 -2.5582 0.7734
1.1984 -1.8126 0.6831
2.9304 -2.7376 4.1626
1.2530 -0.6288 -0.0188
1.6848 -1.0745 -0.2232
9.1191 -13.7160 11.5980
0.9854 -0.7878 0.9972
1.4006 -2.9408 1.7270
-5.1291 -17.6226 -1.1912
1.9499 -38.0720 2.2855
2.8233 -37.5027 3.6486
1.0066 -36.6571 3.1573
-3.1993 -14.5781 -2.8135
-20.1851 -33.6858 4.9979
-12.5962 -30.4229 0.5127
-14.6127 -33.9257 0.7709
0.4765 -32.5224 -0.8056
2.8628 -38.7550 1.6342
-13.8660 -28.3191 3.2618
-8.3562 -22.5992 5.2796
-5.3516 -18.5923 5.4056
-15.7008 -21.9377 7.3537
-14.1908 -19.9952 5.2070
-16.6176 -18.9471 7.1429
-10.4067 -24.1681 1.5185
1.7929 -19.3849 0.2640
-1.4324 -20.5042 5.4375
-2.6282 -19.8812 9.3128
-7.9227 -20.0764 5.0323
-7.8233 -16.0967 8.1529
-11.8595 -15.0572 2.7294
-13.0328 -14.8921 4.4891
-14.7401 -26.2529 1.5656
-13.1070 -26.0030 1.0820
-6.0556 -20.8552 0.1097
-4.8536 -20.2380 -2.3018
-4.4381 -19.4619 -2.1398
-2.4790 -25.3925 9.5298
-7.6772 -15.0763 1.5047
-19.9928 -21.9782 7.5183
-7.0456 -28.1257 -3.8455
-8.8557 -20.9006 0.2153
-7.9066 -13.1506 6.2948
-14.6580 -24.2797 0.8895
-3.1621 -29.7878 -3.4858
-2.7586 -22.7574 -7.8368
3.8005 -22.1594 -0.8239
3.2359 -23.0029 -0.5380
-4.9865 -19.7440 -1.9633
-16.9544 -62.1742 34.7970
-6.3022 -15.6229 0.9745
-4.4201 -14.1730 4.8707
-7.9911 -14.1485 2.2057
-10.5203 -13.7546 0.7495
-4.2469 -21.6823 -3.5384
3.7112 -45.3475 3.9701
2.8270 -43.3381 4.7393
-2.9591 -30.1823 -1.2390
-8.5477 -26.6902 -5.5349
-8.0153 -25.5195 -4.4723
-2.6949 -43.4139 14.1224
-6.0768 -22.3114 8.0240
-4.1621 -15.6075 2.6172
-4.0104 -13.7558 5.0229
-4.5440 -21.7250 -4.5461
-12.1332 -32.4119 -4.6792
6.6905 -35.6929 2.8538
-7.1486 -130.3996 19.5310
-0.8574 -35.3332 -3.3291
7.4063 -57.7711 16.9524
2.4658 -43.1265 5.9583
-53.1188 -112.0639 -0.7713
-2.3800 -25.7945 9.0788
-7.9082 -26.8602 12.9460
-18.0022 -27.5063 1.9233
-5.7598 -20.7106 8.9135
-15.2065 -20.2046 2.5841
-16.0791 -19.7203 1.8536
-32.4832 -34.6528 12.9956
-10.3743 -17.0918 6.6772
-10.4269 -16.7933 5.7809
-2.9315 -31.6019 -3.2405
-24.4835 -48.2457 3.6003
-17.3345 -19.5498 1.5716
13.7493 -99.3218 22.3520
9.6314 -68.5385 11.8525
0.0782 -170.0490 39.3856
2.5615 -54.4819 12.1257
-16.2276 -35.7023 17.0415
-23.0688 -33.7594 9.0968
-24.5626 -28.4964 13.7933
-8.3771 -24.9456 2.2887
-12.4564 -50.6939 36.0148
-29.5676 -49.5716 40.1554
-12.5350 -29.2184 28.5755
-11.0968 -91.4156 2.8525
2.6327 -83.9890 7.0028
-52.0390 -90.6247 55.0082
-73.8980 -123.8146 86.2075
-46.5951 -99.5297 4.6977
-8.7798 -107.8494 17.5674
-97.4303 -95.1062 41.5826
-17.7535 -52.9442 -4.9375
10.7787 -63.4804 7.0308
-1.2499 -25.0855 11.0185
-23.1546 -32.7943 14.2585
-21.4207 -68.5175 49.1624
-7.8878 -22.0972 -6.2215
-29.5074 -151.8849 -14.0272
-29.2963 -99.0092 -0.2148
3.2123 -9.3387 -11.7411
0.5213 -11.3399 -9.9291
-2.9961 -15.5660 -6.1237
-42.5143 -138.7486 -12.6320
-34.8705 -191.4693 -12.2305
-34.5190 -107.9184 33.3547
-8.9318 -62.9964 -6.0174
2.1917 -74.3413 7.8978
-33.3563 -52.8799 11.4279
31.1912 -46.6369 32.8533
23.5790 -44.0853 43.0365
20.1386 -31.8343 4.8058
-1.1721 -29.5463 -14.1293
-4.5843 -50.6093 -9.5882
-9.0773 -50.1078 -13.8238
4.8703 -48.5968 -0.6727
24.9315 -30.9799 14.5100
-16.1540 -45.9232 -1.1519
14.5463 -23.5401 24.8897
-30.8551 -45.4961 2.5540
-17.1856 -37.6584 10.7138
-22.0560 -31.6577 6.8920
-2.6508 -22.2897 20.4399
-3.6351 -15.0048 -7.5441
0.0732 -7.5023 -8.3107
-3.3962 -13.5078 -6.6123
-3.2658 -19.3210 7.6743
-3.2499 -30.9424 7.1639
2.8523 -12.2457 5.6661
3.3567 -37.2946 0.1624
15.8780 -13.9744 3.4585
-12.6845 -20.9971 2.5325
15.9718 -16.3916 0.5350
14.7572 -15.8232 1.3909
3.1317 -29.4030 -0.8696
11.0646 -11.7416 4.3378
19.1039 -17.0064 -1.5310
15.3866 -16.7781 1.1322
-23.3845 -35.6660 9.5834
20.4999 -30.8695 32.0304
15.8257 -14.8026 -2.7950
18.9530 -12.3171 -0.4095
15.7418 -12.9383 5.3059
14.9024 -12.0373 6.1801
13.4971 -10.2110 5.8899
-33.1327 -52.4021 27.3279
-6.4387 -22.5612 -3.3028
-11.3462 -13.0974 0.6761
-6.1791 -23.1813 -2.8298
20.1210 -20.8571 4.4044
16.1773 -19.5104 1.0879
17.8708 -19.2142 2.6203
15.6177 -18.7622 1.6268
14.9978 -18.0796 2.1391
19.3495 -18.3588 6.0027
18.4809 -18.6023 7.0870
15.5884 -16.3687 7.6720
12.9714 -16.9727 5.9074
15.5546 -16.2165 8.6137
14.5035 -15.7362 7.2269
12.0017 -16.0838 5.8351
15.5195 -15.7169 11.3884
11.7607 -14.4684 6.9999
11.9996 -14.4059 7.8219
11.0159 -15.6275 10.0692
9.4464 -13.3826 8.1129
12.1569 -16.5584 6.6824
0.0759 -0.0206 0.0272
0.0152 0.0346 -0.0242
0.0054 0.0309 -0.0241
0.0067 0.0323 -0.0189
0.0001 0.0184 -0.0207
0.0120 0.0242 -0.0203
-0.0004 0.0370 -0.0239
0.0881 -0.0838 -0.0024
0.0409 -0.0167 -0.0133
0.0756 -0.0416 0.0262
0.7324 -0.6764 0.1551
0.5668 -0.6396 0.2218
0.4705 -0.6340 0.2099
0.3920 -0.6261 0.3919
0.7236 -0.6685 0.1695
0.6304 -0.6473 0.3638
0.5934 -0.6612 -0.0657
0.5938 -0.6796 -0.0598
0.6795 -0.6578 0.2441
0.6607 -0.6281 0.3785
0.6397 -0.6200 0.3902
0.4220 -0.6395 0.3431
0.5644 -0.6269 0.1869
0.5720 -0.6246 0.4799
0.7476 -0.6509 0.1215
0.7350 -0.6065 0.2455
0.2386 -0.9819 -0.1868
0.5711 -0.5763 0.2962
0.6480 -0.6319 -0.0169
0.6135 -0.6400 0.0534
0.7370 -0.6215 0.4183
0.4875 -0.5938 0.3339
0.2525 -0.2216 0.0482
0.1613 -0.1147 0.0020
0.5106 -0.5855 -0.0606
0.2378 -0.6364 0.5583
0.1714 -0.5949 0.4840
0.6623 -0.6262 0.1773
0.5768 -0.6091 0.2127
0.5054 -0.5690 0.1890
0.4686 -0.5924 0.1335
0.5388 -0.6025 0.3231
0.6450 -0.6260 0.2207
0.6659 -0.6181 0.1452
0.4801 -0.5030 0.3626
0.2873 -0.6286 0.5868
0.4953 -0.5389 0.0076
0.6158 -0.6088 0.3367
0.6855 -0.6162 0.1429
0.7143 -0.6237 0.1001
0.7078 -0.6081 0.1338
0.6486 -0.6287 0.3817
0.5713 -0.5837 0.3192
0.7827 -0.6451 0.2468
0.5981 -0.5670 0.3312
0.7189 -0.6136 0.4926
0.7436 -0.6311 0.2722
0.7057 -0.5815 0.0635
0.6591 -0.5932 0.2250
0.5988 -0.5733 0.2531
0.4186 -0.4749 0.1290
0.4400 -0.5789 0.2734
0.8124 -0.5939 0.9190
0.8366 -0.6064 1.0206
0.7819 -0.3725 0.8450
0.8268 -0.4118 0.8904
0.8470 -0.5930 1.0288
0.7443 -0.5522 0.8022
0.7709 -0.5706 0.9207
0.6001 -0.5635 0.2630
0.7051 -0.6376 0.9622
0.5690 -0.5520 -0.0426
0.5565 -0.6351 0.0820
0.7336 -0.6007 0.4453
0.5575 -0.6349 0.4405
0.6994 -0.6453 -0.0228
0.4721 -0.6280 0.1677
0.4564 -0.6163 0.1963
0.5780 -0.6239 0.4080
0.5025 -0.6252 0.4331
0.6399 -0.6037 0.1989
0.5341 -0.6288 -0.0016
0.4460 -0.6165 0.2246
0.7587 -0.3661 0.8576
0.8539 -0.6308 0.9502
0.8391 -0.6476 0.9521
0.5809 -0.5735 -0.0295
0.5582 -0.6371 -0.0633
0.7260 -0.6121 0.1180
0.5314 -0.5940 0.1010
0.4536 -0.6587 0.3035
0.4155 -0.6172 0.3032
0.4529 -0.5781 0.3260
0.4396 -0.6583 0.3477
0.5750 -0.5671 0.0891
0.5571 -0.5798 0.0088
0.8099 -0.6230 1.0312
0.8119 -0.6092 1.0302
0.8936 -0.6322 0.0634
0.8791 -0.6455 0.9841
0.5733 -0.6299 0.1197
0.6017 -0.6164 0.3803
0.4167 -0.6278 0.3730
0.5823 -0.6067 0.3555
0.7482 -0.3989 0.8698
0.8458 -0.4606 0.9153
0.5682 -0.6372 -0.0783
0.5908 -0.6026 -0.0192
0.5389 -0.6096 0.1998
0.5304 -0.5988 0.3157
0.4712 -0.6208 0.4182
0.5395 -0.6214 -0.0670
0.6075 -0.6352 0.0391
0.5921 -0.6252 0.1086
0.7764 -0.6219 0.0982
0.8257 -0.6276 0.0265
0.6919 -0.6099 0.8688
0.5895 -0.6541 0.0662
0.2039 -0.1500 0.2313
0.5656 -0.6483 0.0827
0.6542 -0.6213 0.1736
0.4922 -0.5587 -0.0734
0.6238 -0.6072 0.2121
0.6753 -0.6121 0.1848
0.5943 -0.6762 0.3531
0.6428 -0.6268 0.3781
0.7218 -0.6216 0.1359
0.8153 -0.5785 0.0534
0.4265 -0.6499 0.3813
0.5637 -0.6102 0.3969
0.2303 -0.6197 0.5430
0.5561 -0.6362 -0.0650
0.4142 -0.6155 0.3045
0.5378 -0.5684 0.0974
0.7919 -0.6518 0.2494
0.4947 -0.6003 0.3267
0.6638 -0.6041 0.1016
0.6498 -0.5840 0.2192
0.4526 -0.6129 0.1920
0.5823 -0.6164 0.4414
0.5878 -0.6173 0.0361
0.5644 -0.6399 0.4449
0.6653 -0.6198 0.1435
0.4991 -0.6298 0.1006
0.6189 -0.6139 0.3369
0.7254 -0.6157 0.3950
0.5906 -0.6084 0.3282
0.5859 -0.6005 0.3700
0.2635 -0.6154 0.5813
0.5911 -0.6610 0.0641
0.4666 -0.6135 0.3493
0.4133 -0.6213 0.3274
0.6498 -0.6004 0.1217
0.6440 -0.6083 0.2787
0.4320 -0.6058 0.2581
0.7916 -0.5880 0.8803
0.8928 -0.4924 1.0551
0.9103 -0.5917 0.9659
0.7827 -0.6108 0.8878
0.7258 -0.6000 0.8409
0.8226 -0.6121 0.9189
0.7210 -0.5901 0.4359
0.4613 -0.6165 0.4294
0.7843 -0.6314 0.1682
0.6585 -0.6103 -0.0233
0.8441 -0.6150 0.0372
0.5188 -0.6108 -0.0028
0.6833 -0.5911 0.0768
0.7410 -0.6288 0.1192
0.6222 -0.6068 0.1012
0.5916 -0.6520 0.1229
0.6364 -0.6183 0.1489
0.4625 -0.6071 0.2840
0.5596 -0.6069 0.4527
0.5352 -0.6080 0.4501
0.2862 -0.6262 0.5841
0.2270 -0.6046 0.5223
0.2927 -0.6406 0.5814
0.5397 -0.6222 -0.0668
0.7000 -0.5579 0.0879
1.7365 -0.7647 1.4446
0.8070 -0.6003 0.8650
0.8055 -0.6440 0.9422
0.6945 -0.6154 0.8677
0.8025 -0.5884 0.9760
0.7033 -0.6126 -0.0252
0.5510 -0.6378 -0.0330
0.7965 -0.6077 0.1569
0.8211 -0.6089 0.2125
0.5604 -0.6329 -0.0546
0.6552 -0.6446 -0.0327
1.7408 -0.7296 1.6363
0.7491 -0.5777 0.9528
0.8636 -0.4138 0.9285
0.7212 -0.6167 0.2651
0.4645 -0.6197 0.1664
0.4590 -0.6136 0.3045
0.4914 -0.6147 0.4232
0.6693 -0.6019 0.3944
0.5890 -0.6151 0.3572
2.4162 -1.0443 1.8757
0.9488 -0.6238 0.9971
0.6136 -0.6252 0.8193
0.8389 -0.6276 0.9915
0.5785 -0.6296 -0.0725
0.5210 -0.6189 -0.0590
0.7167 -0.6340 0.0364
0.5827 -0.6154 0.0296
0.5002 -0.6268 0.0795
0.5261 -0.6299 0.1840
0.4155 -0.6058 0.2771
0.5856 -0.5983 0.3689
0.5415 -0.5996 0.1683
2.1486 -0.8766 1.6633
0.7364 -0.6314 0.5000
0.6196 -0.6080 -0.0338
0.6928 -0.6322 0.1048
0.4747 -0.6075 0.3398
0.2885 -0.6321 0.5874
0.8568 -0.6063 0.0589
0.5850 -0.6195 0.1078
0.5959 -0.6195 0.3612
0.5304 -0.6140 -0.0323
0.2787 -0.6261 0.5608
0.6615 -0.6117 0.1209
0.7397 -0.5880 0.8692
0.6052 -0.6387 0.0352
0.8013 -0.6106 0.0236
0.5753 -0.6034 0.1916
0.6078 -0.5710 0.3360
0.5860 -0.6008 0.3244
0.6321 -0.6156 0.3716
0.7185 -0.6190 0.1367
0.6464 -0.6466 0.3512

