-0.1117 -0.1889 0.1264
-0.0421 0.0051 0.0369
-0.0152 0.0257 -0.0093
-0.0277 0.0025 -0.0112
-0.0157 0.0183 -0.0148
-0.1313 -0.0903 0.2221
-0.0081 -0.0491 0.0838
0.0312 -0.1178 0.0974
-0.0294 -0.0161 0.0166
0.0071 -0.3465 0.1478
-0.0139 0.0040 0.0159
-0.0567 -0.1269 0.1995
-0.1387 -0.1898 0.1795
-0.5596 -0.7772 1.0447
-0.4860 -0.7370 0.7873
-0.1912 -0.7298 0.4886
0.1951 -0.7149 1.1018
-0.1820 -0.7278 0.8041
-0.4696 -0.8413 0.5177
0.0301 -0.7759 1.0639
0.1364 -0.7108 0.7021
-0.2866 -0.7833 1.0654
-0.3847 -0.7660 0.5870
-0.2871 -0.7591 0.6846
-0.4544 -0.7406 0.7590
-0.4532 -0.7369 0.9396
-0.1499 -0.7427 0.5784
-0.1748 -0.7434 0.6301
0.0301 -0.7004 0.7818
-0.1980 -0.7634 0.6102
-0.0107 -0.7334 1.0364
-0.1031 -0.7012 0.6509
-0.1546 -0.6964 0.6785
0.0095 -0.7273 0.6880
0.1631 -0.7020 0.6413
0.1521 -0.7313 0.5628
-0.3437 -0.7244 0.9676
-0.4022 -0.7332 0.7202
-0.4966 -0.8274 0.8911
0.2084 -0.7128 0.9427
-0.2295 -0.7544 0.6670
-0.0003 -0.7388 0.5419
-0.2310 -0.7365 0.4852
-0.3994 -0.7797 0.6506
0.1891 -0.7302 0.8176
0.0202 -0.7670 0.7789
-0.0031 -0.7091 0.8591
-0.1486 -0.7490 0.8500
0.2242 -0.7265 0.9556
0.1462 -0.7484 0.7298
0.1398 -0.7854 0.9305
0.1085 -0.7085 0.5565
-0.2072 -0.7072 0.9564
-0.1650 -0.8530 0.5958
-0.2342 -0.7439 0.8179
-0.4323 -0.7866 0.6105
-0.0276 -0.7494 0.6650
0.1472 -0.7441 0.7755
0.1054 -0.7242 0.7303
0.1062 -0.7034 0.6908
0.0867 -0.7601 0.6030
0.0796 -0.7406 0.7410
0.0093 -0.6741 0.8820
-0.0643 -0.7503 0.6503
-0.1192 -0.7351 0.5850
-0.1366 -0.7110 0.6901
-0.1987 -0.7336 0.8819
-0.2242 -0.7177 0.8866
-0.2817 -0.7104 0.8886
-0.4085 -0.7790 0.8288
-0.4617 -0.7913 0.8097
-0.4600 -0.7362 0.6164
0.1045 -0.7169 0.6435
0.3537 -1.1840 0.5237
0.0032 -0.7829 0.5692
0.0746 -0.7255 0.6609
-0.3564 -0.7231 0.4749
0.3245 -1.1574 0.4300
-0.4102 -0.7844 0.7548
0.1806 -0.7540 0.6293
0.1508 -0.7428 0.6726
0.0808 -0.6910 0.7680
0.0905 -0.7381 0.7688
0.0789 -0.7382 0.6201
0.0655 -0.7550 0.7753
0.0409 -0.7636 0.7279
0.0398 -0.7199 0.6243
-0.0164 -0.7358 0.7352
-0.0772 -0.7703 0.6602
-0.1151 -0.7501 0.7508
-0.1387 -0.7117 0.7806
-0.1331 -0.7175 0.6582
-0.1583 -0.7616 0.6745
-0.2686 -0.7666 0.6268
0.1725 -0.7469 0.8636
0.3405 -1.2539 0.5386
-0.4154 -0.7320 0.5604
0.1182 -0.7769 0.8094
0.1151 -0.8136 1.1745
0.0078 -0.7697 1.1066
-0.0975 -0.7135 1.0052
-0.0989 -0.6607 0.5327
-0.2070 -0.7211 0.9234
-0.2643 -0.7910 1.0838
-0.2500 -0.7726 0.8823
-0.2178 -0.7636 0.7256
-0.3902 -0.7798 0.6867
-0.5006 -0.7753 0.9594
-0.4787 -0.7709 0.8648
-0.4100 -0.7860 0.6407
0.1664 -0.7613 1.0466
0.1880 -0.7495 0.7214
0.1686 -0.7436 0.6305
0.1439 -0.7128 0.6592
0.0002 -0.7106 0.7541
-0.0666 -0.7569 0.6798
-0.1414 -0.7680 0.9673
-0.1477 -0.7714 0.9985
-0.1016 -0.8068 0.5730
-0.1658 -0.7433 0.7847
-0.1533 -0.7516 0.4989
-0.2237 -0.7541 0.8323
-0.2025 -0.6786 0.7096
-0.2621 -0.7401 0.7318
-0.2666 -0.7693 0.7189
-0.3338 -0.7574 0.8225
-0.3051 -0.7611 0.6268
-0.3408 -0.7222 0.5198
-0.4298 -0.7232 0.5852
-0.5103 -0.7848 0.7311
0.2790 -0.7615 0.8242
0.0211 -0.7839 0.5765
0.2401 -0.7014 0.7529
0.1448 -0.6944 0.8745
-0.0312 -0.7295 0.8723
-0.0735 -0.7254 0.8293
0.3857 -1.2220 0.4097
0.1859 -0.7534 0.9949
-0.0270 -0.7726 1.0755
-0.3652 -0.7955 0.9908
-0.5153 -0.8001 0.7261
0.2326 -0.7321 0.9539
0.1103 -0.7230 0.7841
0.0703 -0.6993 0.7323
-0.0194 -0.7134 0.8504
-0.1254 -0.6711 0.7238
-0.4290 -0.7470 0.7570
-0.0247 -0.7405 0.6516
0.0839 -0.6915 0.7572
-0.1390 -0.7172 0.8047
0.1807 -0.7477 0.6174
-0.3470 -0.7686 0.9553
0.0614 -0.6892 0.6940
0.0688 -0.7150 0.6131
-0.2075 -0.7363 0.9893
-0.2489 -0.7380 0.9749
0.1452 -0.7209 0.7422
0.1017 -0.6924 0.7935
0.0769 -0.7007 0.6895
0.0405 -0.7124 0.6683
-0.0482 -0.7389 0.5548
-0.1916 -0.7219 0.8165
0.1896 -0.7662 0.9403
-0.4360 -0.7795 0.9205
0.2585 -0.6983 0.7141
0.2415 -0.7202 0.8661
-0.5177 -0.7330 0.9764
-0.3769 -0.7066 0.6074
-0.3991 -0.7335 0.6638
0.1065 -0.6962 0.6850
-0.3750 -0.7279 0.6523
-0.3538 -0.7136 0.6195
-0.4307 -0.7350 0.8526
-0.2265 -0.7176 0.6530
-0.2686 -0.7224 0.9037
0.0845 -0.6955 0.7131
-0.2059 -0.7104 0.7760
0.0688 -0.7269 0.5496
0.0429 -0.7247 0.7260
0.0408 -0.6951 0.5925
0.0209 -0.7150 0.7143
-0.1724 -0.7140 0.7031
-0.1543 -0.6931 0.6406
-0.1931 -0.7044 0.8692
-0.1520 -0.7001 0.6754
-0.1214 -0.6656 0.5997
-0.1348 -0.7132 0.6865
-0.0558 -0.7092 0.7379
-0.1027 -0.7159 0.6478
0.2070 -0.7239 0.8476
0.1913 -0.7230 0.8004
0.1659 -0.7046 0.6320
0.1468 -0.7104 0.5809
0.0400 -0.7167 0.8902
0.1281 -0.7091 0.8216
-0.1859 -0.7064 0.5892
-0.4405 -0.7439 0.7905
0.0988 -0.7282 0.9074
-0.4358 -0.7159 0.7922
-0.2318 -0.7026 0.5926
-0.3644 -0.7175 0.5907
-0.2665 -0.7116 0.6346
-0.2406 -0.7027 0.4816
-0.3208 -0.7100 0.5860
-0.3746 -0.7211 0.7572
0.2533 -0.7260 0.6421
0.2516 -0.7304 0.7986
0.1571 -0.7038 0.9484
-0.2308 -0.7052 0.5068
-0.2858 -0.7046 0.5692
-0.3534 -0.7105 0.5391
-0.1211 -0.6612 0.6477
-0.5026 -0.7571 0.9724
-0.4684 -0.7428 0.9115
-0.2897 -0.7300 0.9069
0.3995 -1.1383 0.3843
0.2510 -0.7127 0.7643
0.0899 -0.6194 0.7420
0.0749 -0.7091 0.6362
0.0444 -0.7247 1.0165
-0.1820 -0.7382 0.8047
-0.3091 -0.7520 0.7313
0.2866 -0.7191 0.5809
-0.2356 -0.7124 0.8398
0.3878 -1.1399 0.5178
-0.2033 -0.7863 0.6231
-0.4062 -0.7495 0.7317
-0.4393 -0.7480 0.6026
0.2717 -0.6921 0.6351
0.1099 -0.7136 0.7310
0.2254 -0.6821 0.5290
-0.3539 -0.7259 0.7495

