0.0058 0.0072 0.0338
0.0299 0.0017 0.2064
0.3084 0.4235 2.2870
0.0681 -0.1178 0.2773
0.0502 -0.1091 0.2073
-0.0051 -0.1401 0.2584
0.0244 -0.1095 0.1314
-0.0345 0.0293 0.6929
0.0022 0.0726 1.1093
-0.1646 -0.1196 1.3599
0.1091 -0.0735 0.7142
0.0434 -0.0674 1.1601
-0.0917 -0.2325 0.4849
0.0368 -0.0999 0.4241
0.2430 -0.4594 2.6940
0.1355 -0.4842 2.9109
-1.1105 -2.4555 2.3401
-1.1251 -2.3695 1.8274
-2.0974 -2.1599 1.8354
-2.3219 -2.3661 2.2960
-1.9577 -2.2146 2.0391
-2.4941 -2.1035 3.0974
-1.4166 -1.5630 1.5541
-1.5447 -1.6239 0.1787
-1.2359 -1.5611 0.3698
-2.0812 -0.8225 1.3579
-2.0876 -0.8522 0.9391
-1.4361 -1.6034 0.2217
-1.9937 -0.8976 0.9533
-1.0818 -1.6382 0.5158
-1.5014 -1.6300 0.9071
-1.2121 -1.5879 0.4254
-1.3513 -1.6206 0.3055
-1.4103 -1.5925 0.2411
-1.4558 -1.6102 0.1222
-0.9013 -1.6100 0.6420
-1.5949 -1.6361 0.8615
-1.5164 -1.6119 1.0876
-1.5858 -1.6929 1.6720
-1.9255 -0.8623 0.6598
-1.4938 -1.6855 0.4362
-1.4639 -1.6586 0.7548
-1.5335 -1.7904 1.1431
-1.0077 -1.6277 0.4676
-1.2269 -1.7029 0.8048
-1.1413 -1.7029 0.8276
-1.5630 -1.6164 0.5022
-1.3213 -1.8167 0.6905
-1.4809 -1.5310 1.3984
-1.9215 -0.8069 0.9206
-1.3142 -1.6346 0.5162
-1.0753 -1.6491 0.5526
-1.2807 -1.5848 0.1736
-1.4817 -1.5750 1.0411
-1.3815 -1.6658 1.4933
-1.4004 -1.6294 1.3467
-1.5376 -1.6902 1.5325
-1.9848 -0.8529 0.6827
-1.3929 -1.6112 0.7072
-0.9199 -1.5798 0.4822
-1.1125 -1.6242 0.7570
-1.4143 -1.6432 1.5281
-1.1645 -1.6527 1.1179
-0.9266 -1.6416 0.6990
-0.9580 -1.5926 0.6847
-1.0962 -1.6372 0.5315
-2.3332 -0.8314 1.4540
-1.5118 -1.6758 1.6339
-1.6186 -1.7486 1.5509
-1.5280 -1.6945 1.0778
-1.1967 -1.6953 0.7370
-1.0854 -1.7187 0.6033
-1.4795 -1.6464 0.8217
-1.3972 -1.6883 0.7327
-1.6398 -1.8759 0.8838
-1.4224 -1.7138 0.6863
-1.2805 -1.7061 0.5184
-1.4473 -1.6666 0.5829
-1.7958 -0.8483 0.6154
-1.3471 -1.6825 0.1267
-2.2452 -0.7865 1.3512
-1.0273 -1.4355 0.5898
-1.2699 -1.6462 0.7575
-1.5077 -1.5272 1.0770
-1.0449 -1.8047 0.6154
-1.5232 -1.5653 1.0624
-1.2462 -1.4602 0.5437
-1.4178 -1.7924 0.5086
-1.4441 -1.5541 1.4210
-1.5055 -1.5808 1.0730
-0.9915 -1.7352 0.9759
-1.4717 -1.7978 0.6520
-1.8234 -1.3258 0.8255
-1.6075 -1.6377 0.2042
-1.1768 -1.6087 0.9486
-1.4068 -1.5630 0.7337
-1.2755 -1.8434 0.3987
-1.5624 -1.6318 0.1518
-1.1518 -1.3838 1.5201
-1.4211 -1.7053 0.4809
-1.5940 -1.6966 1.4168
-1.1874 -1.5296 0.7276
-1.1091 -1.7448 0.6199
-1.5803 -0.8395 0.7593
-1.2849 -1.6435 0.2899
-1.2463 -1.6242 0.1476
-1.2613 -1.5667 0.4959
-1.0609 -1.4831 0.6361
-1.3694 -1.5360 1.6039
-1.2548 -1.4328 0.4298
-1.5403 -1.5661 0.1345
-2.2877 -0.9102 1.6464
-1.1193 -1.6554 0.6979
-1.3987 -1.6212 0.7066
-1.3457 -1.7880 0.5415
-1.3344 -1.6777 0.1683
-1.3753 -1.6683 -0.0257
-1.4440 -1.6819 -0.0326
-1.9648 -0.9128 0.9169
-1.6407 -1.6580 0.6955
-2.1551 -0.8413 0.6821
-1.3444 -0.9187 0.6838
-1.5671 -0.8347 0.7782
-0.8812 -1.6896 1.3905
-1.6078 -1.7796 1.5252
-1.0328 -1.7341 0.9324
-1.4103 -1.7908 0.2742
-1.0833 -1.6743 1.3083
-0.9832 -1.9071 0.4753
-0.9231 -1.7586 0.4385
-1.9267 -1.5415 0.8869
-1.2103 -0.7944 1.1254
-1.5161 -1.5414 1.2874
-1.6223 -0.8376 0.5494
-0.8964 -1.5050 0.8192
-1.4334 -1.5958 1.7221
-0.7602 -1.5461 0.7718
-0.9328 -1.5978 1.0202
-0.9001 -1.6260 0.7979
-1.3146 -1.6637 1.5604
-1.0495 -1.6103 0.5319
-1.1322 -1.5031 0.7400
-1.4563 -1.6885 0.5568
-1.6049 -1.6279 0.2031
-1.3517 -1.6590 0.0461
-1.3750 -1.6811 0.0142
-1.8007 -1.5750 0.0686
-1.5636 -1.6189 -0.0206
-1.7145 -1.6659 -0.0354
-2.2745 -0.8303 0.2316
-1.9256 -1.3641 -0.0067
-1.5942 -1.6242 -0.1610
-2.0756 -0.8567 0.4219
-2.2396 -0.8277 0.2335
-1.6264 -1.6728 -0.1266
-1.4000 -0.8768 0.6436
-1.6422 -0.8537 0.5587
-1.2038 -0.6548 0.5059
-1.3964 -0.8903 0.6553
-1.0383 -1.5405 0.5896
-1.2291 -1.5250 0.2747
-0.8579 -1.7734 0.5024
-0.9157 -1.5319 0.6397
-1.0370 -1.5730 1.2516
-1.1142 -1.5808 0.3555
-0.7911 -1.5940 0.7715
-0.8756 -1.7782 0.5420
-0.9229 -1.4046 0.3619
-1.2068 -1.4422 0.1674
-0.7869 -1.6240 0.6067
-0.8901 -1.7153 0.5132
-0.8839 -1.8018 0.5211
-1.2032 -1.6366 0.1581
-1.0308 -1.6017 0.3749
-0.8413 -1.6946 0.8929
-1.0955 -1.5383 0.5523
-1.1497 -1.4754 0.5005
-1.0874 -1.5611 0.5678
-1.1941 -1.4912 0.2309
-1.0476 -1.5684 0.5215
-1.3005 -1.6251 0.0854
-1.1445 -1.5644 0.7771
-1.1716 -1.5749 0.2861
-1.2202 -1.4716 0.2321
-1.2805 -1.5559 0.2644
-1.0030 -1.6360 1.1653
-0.9258 -1.5720 0.7687
-1.4034 -1.5489 0.2525
-1.4370 -1.5258 0.1263
-0.9064 -1.6457 0.9220
-1.0027 -1.6544 0.4424
-3.1192 -0.9118 0.3731
-1.5636 -0.8515 0.7918
-1.4453 -1.6610 0.6890
-1.4391 -1.6833 0.6375
-1.6628 -1.6662 0.2677
-1.9140 -0.8751 0.3658
-1.3711 -1.5936 -0.0012
-1.7910 -0.8655 0.0805
-1.9427 -1.5955 -0.1922
-1.9451 -1.6274 -0.1501
-1.8771 -1.4221 0.8142
-1.4595 -1.3659 0.2830
-0.7871 -1.4076 0.7211
-2.9693 -0.8353 0.0996
-1.4790 -1.6547 0.8188
-1.5148 -1.6529 0.7917
-1.4583 -1.6387 0.7412
0.7016 -0.9157 0.6619
-1.7935 -0.8674 0.6015
-1.5258 -1.7469 0.3938
-2.0836 -0.8594 0.4026
-1.5212 -1.6644 0.0339
-1.9535 -1.6531 -0.1653
-1.5016 -1.5046 -0.2452
-1.5645 -1.6208 0.1360
-1.6487 -1.7255 0.0479
-1.2160 -1.5779 0.7271
-0.8403 -1.5819 0.5917
-0.8228 -1.5811 0.6374
-0.8393 -1.6060 0.9201
-0.9672 -1.5996 0.4952
-0.7724 -1.4909 0.5881
-1.0641 -1.6040 0.6247
-1.4034 -1.6764 0.6734
-1.8794 -0.8807 0.6497
-1.8103 -0.8475 0.5984
-2.0520 -0.8624 0.6197
-1.5427 -1.5700 -0.0962
-1.9689 -1.5332 -0.1646
-1.8266 -0.8091 0.5916
-0.8501 -1.5124 0.5591
-0.7743 -1.4407 0.7176
-1.9816 -1.6609 -0.2367
-1.5778 -0.8689 0.8126
-1.4774 -1.5820 0.4647
-1.4978 -1.5626 0.3706
-1.8968 -0.8597 0.3838
-1.5833 -1.5849 0.1976
-2.0913 -0.8709 0.3870
-1.7995 -0.8359 0.3340
-1.7897 -0.8537 0.0907
-1.1385 -0.2216 0.2934
-1.4795 -1.5514 1.0213
-2.3095 -0.8783 0.4610
-1.7548 -0.3946 0.4761
-1.9942 -0.8949 0.1561
0.0394 -0.0819 0.0552
0.0313 -0.0483 0.1012
0.0204 -0.0255 0.0549
0.0383 -0.0937 0.0438
0.0721 -0.0886 0.2063
0.2292 -0.6116 0.1181
0.1442 -0.7491 0.1159
0.0423 -0.4905 0.2060
0.0197 -0.6569 0.2517
0.4140 -0.9223 0.7388
0.3762 -0.9325 0.7194
0.5087 -0.6770 0.5834
0.3204 -0.8774 0.6410
-0.1627 -0.7829 0.2748
0.4464 -0.9368 1.2987
0.4579 -0.9983 0.7784
0.2496 -0.4331 0.4341
-0.4508 -1.6002 0.7374
0.4111 -0.9484 0.7793
0.1717 -0.8247 0.8492
-0.6226 -1.6938 0.9087
0.2982 -0.6178 0.5032
0.0794 -0.9687 0.7777
1.1082 -1.1324 2.4994
0.6615 -0.9303 0.6033
0.6842 -0.9310 0.6714
0.4375 -1.3302 3.7720
-0.2601 -0.2775 0.3887
-0.5421 -1.4002 2.0998
-0.5077 -1.2637 2.3864
-0.6064 -1.4271 2.0703
0.4972 -0.7995 2.1500
0.8121 -1.0489 0.7399
0.5400 -0.8984 0.8947
0.4824 -1.0182 0.8012
0.3699 -0.9316 0.6813
0.7209 -0.8984 0.6969
0.4058 -0.5777 0.3299
0.7211 -1.0718 0.9211
0.4556 -0.9468 0.7334
1.0664 -0.9006 2.4922
0.8730 -0.9961 0.5446
1.0589 -1.3095 0.9236
0.7914 -1.0506 0.6652
0.6447 -0.9262 0.5671
0.5119 -0.8319 0.5970
0.4946 -0.9559 0.8292
0.4892 -0.5505 1.6630
0.7849 -0.9059 0.6970
0.8285 -0.8638 0.8737
2.3528 -1.7026 2.5886
1.2459 -1.4287 1.1075
0.4662 -1.0272 0.8311
0.3580 -1.0140 0.6720
1.5502 -2.6499 0.0258
1.2458 -1.0119 0.8151
0.6818 -1.2438 0.8651
1.0203 -0.8370 2.0510
1.0622 -1.3413 0.8610
1.4465 -1.5345 0.5927
0.0636 -2.4581 0.8423
0.0681 -0.0858 0.0350
-0.1597 -0.5862 0.2468
0.3613 -0.3401 0.9852
0.1234 -0.1123 0.2286
1.4230 -2.3642 0.0056
0.0742 -0.5363 0.2226
0.2336 -0.5203 -0.0329
0.1485 -1.9451 0.5396
2.7638 -0.9334 1.3984
0.1192 -0.3644 0.0564
0.1044 -0.0733 -0.0391
0.0451 -0.0636 -0.0453
0.6918 -0.8947 0.5590
0.3363 -1.1212 0.0302
0.0874 -1.1993 0.2758
0.3945 -0.6495 0.2965
0.2866 -0.6162 0.4118
0.1346 -0.5596 0.5038
0.4144 -0.5615 0.2954
0.1370 -0.4710 0.3764
0.0715 -0.6802 0.4786
0.4980 -0.4287 0.2833
0.2180 -0.5897 0.3286
0.8824 -0.7354 0.5251
0.0650 -0.9406 0.6338
0.3136 -0.5882 0.4663
0.8320 -1.3282 2.5317
0.3700 -0.5260 0.2918
0.1164 -0.5162 0.4574
0.4119 -0.5736 0.3246
0.4074 -0.7849 0.7658
0.5327 -1.6582 0.0177
0.6594 -0.8107 0.5681
1.7923 -1.3089 1.9241
0.3740 -0.8216 0.5840
0.3286 -0.8091 0.5193
0.4584 -0.8306 0.7328
0.3570 -0.8004 0.5826
0.5443 -0.8383 0.6540
0.4764 -0.8536 0.2786
0.6864 -0.7820 0.3135
0.3797 -0.8007 1.0304
0.9793 -0.8000 0.5838
0.6411 -0.7794 0.6377
0.4871 -0.6632 0.7222
0.5360 -0.7958 0.8053
0.4734 -0.8472 0.2824
0.7430 -0.8087 0.2708
0.8947 -0.7968 0.4452
0.4487 -0.8035 0.2885
0.5191 -0.8437 0.3606
-0.2418 -1.4149 0.3976
0.4411 -0.8470 0.6928
0.9241 -0.8106 0.4578
0.4151 -0.7890 0.3989
0.3835 -0.7888 0.5712
0.3838 -1.1551 0.6727
0.6525 -0.8263 0.1533
0.7114 -0.7603 0.2954
0.2892 -0.7838 0.8765
0.2895 -0.7838 0.8989
0.2622 -0.7747 0.8563
0.4835 -0.8093 0.7431
0.7006 -0.8306 0.5706
0.3171 -0.7681 0.5182
0.5261 -0.7686 0.4296
0.7527 -0.8412 0.6669
0.2385 -0.7833 0.4174
0.4074 -0.8053 0.6305
0.3597 -0.3369 0.3217
0.5543 -0.7593 0.8475
0.1569 0.0014 0.1628
0.1498 -0.7049 0.6578
0.5257 -0.9272 0.5366
0.3425 -0.9029 0.5425
0.0310 -0.9154 0.6286
0.9686 -1.5749 2.7768
0.7392 -1.1859 2.4238
0.5011 -0.8996 0.7975
0.9704 -1.0133 2.2298
0.7917 -1.3294 2.5377
0.6689 -1.1999 2.6014
0.3873 -0.8917 0.6193
0.3309 -0.9089 0.5396
0.9427 -1.0144 2.1209
0.4011 -0.8917 1.1250
0.3348 -0.9595 1.0690
0.1975 -0.9028 0.7633
-0.5778 -1.5452 0.5530
0.0448 -1.7629 3.3801
-0.5326 -1.6484 0.5521
-0.4134 -1.0376 1.4649
-0.4363 -1.0800 1.4956
-0.7502 -1.6673 0.7804
-0.4757 -1.0139 1.7858
-0.5096 -1.0436 1.7449
-0.4048 -0.9680 1.7500
-0.5424 -1.7607 0.5412
-0.8134 -1.7461 0.5951
0.2092 -1.5907 3.2341
0.6326 -1.3025 2.5832
-0.9161 -1.8143 1.1196
-0.7545 -1.4233 1.6010
-0.4650 -1.0828 2.0933
-0.4258 -1.7877 0.5385
-0.6700 -1.6927 0.6128
-0.4229 -1.1779 1.4159
-0.3832 -1.0050 1.4829
-0.3619 -0.9515 1.7134
-0.7450 -1.7183 0.5304
-0.4774 -1.0663 2.0216
-0.7339 -1.5158 1.5738
-0.7591 -1.4629 1.6879
-0.7877 -1.3339 1.5094
-0.6953 -1.7907 0.6164
-0.4814 -1.0559 1.7940
-0.7203 -1.2093 1.4884
-0.6973 -1.4037 0.4020
-0.6087 -0.7177 1.7746
-0.0977 -1.6707 4.0012
-0.5677 -0.8477 1.7659
-0.6400 -0.7525 1.6402
-0.5433 -0.7749 1.7082
-0.7875 -1.6837 0.6770
-0.7544 -1.5267 0.6593
-0.5412 -1.0149 1.9458
-0.7537 -1.2980 1.5200
-0.6109 -0.7759 1.8862
-0.6527 -1.7794 4.1623
-1.0482 -1.6233 1.6965
-0.4273 -1.1566 1.4762
0.7172 -1.1469 2.4494
0.8765 -1.4366 2.5509
0.3436 -0.8398 0.6047
0.9574 -1.0516 2.1624
1.0981 -1.3679 2.5987
0.1043 -1.5957 3.0643
1.5753 -1.1347 2.2989
0.3595 -0.8329 0.5846
0.2850 -0.8239 0.5140
0.9806 -0.9503 2.0959
0.9378 -0.8545 2.1421
0.6148 -0.9769 2.5797
1.6456 -1.3865 2.3407
0.5646 -0.9512 2.4753
0.1625 -0.8561 1.6341
0.6266 -0.8355 0.5175
0.7428 -0.8278 0.6829
0.6917 -0.8013 0.6301
0.6575 -0.8500 0.5867
0.6100 -0.8501 0.5253
1.9091 -1.1812 2.0971
1.8290 -1.3736 2.0070
0.4307 -0.8315 0.6955
0.4143 -0.7959 0.6958
0.9196 -1.0537 2.0761
0.6481 -0.8802 0.4975
1.9006 -1.3872 2.0506
1.1549 -0.9604 2.2675
0.9864 -0.7958 2.0769
0.2857 -0.8373 0.9413
0.5561 -0.7886 0.4283
-0.4477 -0.9539 1.6250
2.3014 -1.2162 1.9660
2.3647 -1.5355 2.1296
1.8238 -1.3863 2.1691
0.8473 -1.1022 2.2989
0.6290 -0.9593 2.0359
2.0356 -1.3118 1.8715
0.9118 -0.8332 0.4616
0.5775 -0.8227 0.4547
0.6787 -0.8307 0.5759
0.6922 -0.8259 0.6179
0.7803 -0.8413 0.7249
0.5940 -0.8626 0.4997
0.5795 -0.8756 0.4959
0.5751 -0.8334 0.4939
0.3187 -0.8047 0.5788
1.4442 -0.8667 2.1906
0.8264 -1.4016 2.6464
0.4426 -0.8382 0.2911
0.4688 -0.8063 0.5002
0.4559 -0.8652 0.7926
0.3236 -0.8414 0.5664
0.2335 -0.7498 0.4265
0.2755 -0.8087 0.5005
0.6580 -1.0658 2.1824
0.5839 -0.7920 0.4474
0.6308 -0.8298 0.5704
0.6390 -0.8435 0.5287
0.6319 -0.8236 0.1462
0.9357 -0.8040 0.5683

