-0.8735 -3.3275 2.9704
-1.1144 -3.8845 1.9287
-1.5731 -4.0707 1.1614
-1.0949 -2.6003 1.5280
0.1038 -4.5354 0.9997
0.3194 -4.7227 1.2588
0.1406 -3.9357 2.2533
-0.0727 -4.7711 1.2837
-0.0394 -4.2581 1.9494
-0.0094 -3.8048 2.3794
0.0322 -0.0493 0.0181
0.0607 -0.5931 0.0695
-0.4301 -3.9883 0.5509
-0.3272 -3.8346 2.4242
-0.6998 -3.0110 0.8233
-0.4183 -4.4049 1.8548
-0.4693 -3.7310 2.5589
-0.6758 -4.8338 1.3295
-0.6421 -4.4904 1.0215
-0.5318 -3.7347 1.5726
-0.6431 -3.7678 2.4037
-0.7550 -3.9412 0.5535
-0.4069 -4.4171 2.0391
-1.0570 -3.9320 2.3220
-1.2800 -2.6682 1.2536
-0.0016 -0.1212 0.1646
0.0658 -0.1277 0.1091
-0.7562 -3.4968 2.0716
0.0707 -3.1677 0.8439
0.1909 -2.7254 1.6951
-1.3285 -3.8187 1.0850
-0.8491 -2.5556 1.6409
-1.0203 -4.4503 1.0295
-0.8821 -4.8100 1.3315
-0.0959 -4.7533 0.8382
-0.4078 -2.9412 1.7250
0.0134 -0.1416 0.0228
0.0509 -0.1324 0.1734
0.0129 -0.1542 0.0508
-0.0828 -0.1376 0.1916
-0.1866 -0.4671 0.2229
-0.0038 -0.1197 0.0478
-0.0410 -0.1408 0.0655
0.0790 -0.2591 0.0412
0.0111 -0.1228 0.1681
-0.1326 -0.2486 0.1648
-0.3413 -3.8278 2.0449
0.0979 -0.3026 0.1514
-0.0919 -0.1659 0.0705
-0.0158 -0.5611 0.5304
-0.0098 -0.2746 0.2783
0.0632 -0.2773 0.0773
0.0025 -0.1557 0.0324
-0.0088 -0.1441 0.0150
-0.0429 -0.1512 0.0211
-0.0428 -0.1097 0.0391
0.1376 -0.3845 0.4503
-0.0174 -0.0250 0.0370
0.0693 -0.1362 0.1588
0.0348 -0.0660 0.0599
0.0237 -0.1380 0.0150
-0.0012 -0.1038 0.0427
-0.0196 -0.0648 0.0038
-0.0312 -0.1451 0.0265
-0.0294 -0.1122 0.1625
-0.0410 -0.1431 0.0380
-0.0549 -0.1003 0.0290
-0.0377 -0.0513 0.0040
-0.0579 -0.1024 0.0113
0.0232 -0.1314 0.0584
-0.0980 -0.1291 0.1565
0.1100 -0.4093 0.2152
-0.0077 -0.0418 0.0552
-0.0045 -0.0570 0.0317
0.0481 -0.0238 0.0063
0.0199 -0.1164 0.1587
-0.0091 -0.0535 0.0744
-0.0208 -0.1433 0.0339
-0.0240 -0.1469 0.0315
-0.0950 -0.1560 0.0176
-0.0088 -0.0590 0.0175
-0.0898 -0.1307 0.0799
0.0237 -0.0246 0.0099
0.0078 -0.0636 0.0990
0.0563 -0.0239 0.0176
0.0553 -0.0398 0.0228
0.0451 -0.0164 0.0405
-0.0638 -0.1491 0.0787
-0.1126 -0.1676 0.0556
0.0246 -0.0164 0.0413
-0.0608 -0.0310 0.0646
-0.0722 -0.0381 0.0231
0.0064 -0.0629 0.0452
0.6995 -3.2506 2.6802
0.5685 -3.2045 2.7506
-1.7238 -3.7849 2.0565
0.9192 -4.5063 1.1665
0.2764 -3.6467 2.0777
0.5158 -4.7039 1.2487
0.0445 -0.0652 0.1079
0.6707 -4.5534 0.7755
-0.0031 -3.6668 2.4786
-1.8550 -4.0013 2.0240
0.5046 -2.0972 2.5209
-0.3867 -2.1997 2.7538
-0.6008 -2.2835 1.9344
-0.0907 -0.1454 0.1352
-0.9888 -3.6626 2.3550
0.4438 -3.8108 2.1617
0.2826 -3.9288 2.0439
-1.1152 -2.5957 1.8241
-0.2718 -4.7649 1.2951
-1.6175 -4.1427 1.9759
-0.4699 -4.7971 1.3134
-0.5776 -3.2770 3.0813
0.0131 -0.2450 0.1253
-0.0090 -0.0817 0.0921
-0.0790 -0.2810 0.3177
0.0363 -0.0575 0.0260
0.5277 -2.6320 3.0274
0.5548 -2.6893 3.3928
0.5651 -2.7845 3.3728
-0.2670 -2.0839 2.5980
0.0285 -0.5378 0.6265
-0.6071 -2.2774 2.7114
-0.6658 -2.4978 2.6676
1.0860 -4.4297 1.1330
-1.8863 -4.4601 0.8730
0.4668 -2.4064 2.6206
-1.4151 -3.2688 0.7782
0.0544 -0.3441 0.3467
-1.6747 -3.9880 2.0046
-0.1351 -0.2715 0.3698
0.3420 -2.3007 2.6641
0.0752 -0.1314 0.0717
-0.0457 -0.1409 0.1212
-0.6550 -2.0152 2.6208
0.8264 -3.4873 2.3211
1.2343 -3.2941 2.3310
1.2882 -2.1314 2.5591
-0.4418 -3.4554 2.1965
-0.1932 -4.0317 2.1403
0.8480 -2.5870 1.9935
-0.6392 -3.4641 1.6196
1.1079 -3.4023 2.2372
0.7482 -2.6903 1.9402
1.0309 -2.6984 3.1821
-0.7805 -2.9480 3.3197
-0.7086 -3.3068 2.2923
0.1423 -4.2592 1.9364
0.3815 -2.7055 2.3344
0.0360 -0.0619 0.0175
0.0153 -0.0160 0.0428
1.2503 -4.3660 1.1024
0.0142 -0.0399 0.0287
0.1008 -0.4041 0.0720
0.0283 -0.0683 0.0067
0.0279 -0.1307 0.0197
0.0105 -0.0709 0.0131
0.0333 -0.0585 0.0285
0.7055 -4.5147 1.1874
-1.6010 -4.1551 0.6227
-1.4278 -2.5472 1.8152
0.1506 -3.6975 2.4853
-0.4172 -3.2397 3.0332
0.0221 -0.0437 0.0342
-1.3222 -2.7912 0.6845
0.0302 -0.0351 0.0582
-0.1004 -0.6032 0.1942
-0.0161 -0.1116 0.0579
-0.0193 -0.2404 0.3210
0.0543 -0.0234 0.0165
0.0721 -0.2930 0.0744
0.0307 -0.1327 0.0134
-0.0093 -0.0544 0.0081
0.1317 -0.2885 0.1306
0.0253 -0.0629 0.0083
0.0402 -0.0231 0.0130
0.5801 -3.9748 1.4756
1.2414 -4.1563 1.4377
0.0364 -0.5912 0.0727
1.0666 -3.2224 2.2949
1.1905 -3.0423 2.4514
-0.5619 -0.8768 1.1754
0.0371 -0.0610 0.0650
0.0317 -0.0239 0.0428
0.0514 -0.0274 0.0475
-0.0332 -0.1539 0.0152
0.0294 -0.1500 0.0148
-0.0323 -0.1495 0.0326
0.0042 -0.1494 0.0672
-0.0278 -0.2934 0.0437
0.0202 -0.0658 0.0284
0.0458 -0.1430 0.0574
0.3565 -1.3657 0.5984
-0.8685 -4.6811 0.8573
0.4477 -3.6346 2.4209
0.1220 -3.8849 2.0433
-1.1188 -3.4177 2.3814
0.4147 -3.5366 2.1746
-1.0995 -3.3514 2.5238
0.8909 -3.2024 2.1132
0.0787 -0.0872 0.0796
0.0378 -0.0401 0.0716
-0.1609 -0.2654 0.0643
-0.3067 -0.4556 0.4054
-0.1414 -0.1009 0.1360
-0.1320 -0.0507 0.0750
0.0294 -0.0191 0.0511
0.0069 -0.0594 0.0266
-0.0947 -0.1374 0.0789
-0.0094 -0.0494 0.0235
-0.0408 -0.0522 0.0043
-0.0961 -0.1314 0.1270
-0.5969 -3.5262 2.6139
0.7663 -3.5056 1.7700
0.1263 -3.5667 2.2015
-0.1484 -0.0810 0.1093
-0.0297 -0.2444 0.2598
0.0464 -0.0284 0.0210
0.0430 -0.0016 0.0090
0.0284 -0.0075 0.0194
0.0402 -0.0085 0.0347
0.0123 -0.0331 0.0634
0.0386 -0.0009 0.0098
0.0371 0.0043 0.0139
0.0093 -0.0135 0.0093
-0.0012 -0.0191 0.0482
0.0408 -0.0224 0.0429
0.0367 -0.0488 0.0153
0.0231 0.0037 0.0275
0.0337 -0.0419 0.0278
0.0466 -0.0197 0.0425
0.0265 -0.0135 0.0221
0.0344 -0.0374 0.0262
0.0058 -0.0173 0.0100
0.0331 -0.0036 0.0288
0.0255 0.0054 0.0142
0.0249 0.0053 0.0144
0.0093 -0.0593 0.0525
0.0532 -0.0444 0.0211
0.0100 -0.0253 0.0639
0.0104 -0.0313 0.0277
0.0377 -0.0038 0.0208
0.0129 -0.0376 0.0726
0.2317 -0.5805 0.0283
0.3130 -0.5683 0.3627
0.3248 -0.5646 0.2834
0.2665 -0.5590 0.6095
0.2464 -0.5871 0.0956
0.3404 -0.5477 0.5424
0.3210 -0.5573 0.5141
0.3868 -0.5492 0.5358
0.3781 -0.5139 0.5376
0.0199 -0.5681 0.6059
0.2404 -0.5411 0.3799
0.0948 -0.5533 0.6097
0.1425 -0.5407 0.5901
0.2527 -0.5637 0.3136
0.1551 -0.5473 0.5536
0.2066 -0.5608 0.5552
0.3299 -0.5648 0.5484
0.2529 -0.5499 0.1416
0.0662 -0.5572 0.5889
0.3144 -0.5929 0.2998
-0.0654 -0.5396 0.6118
0.3138 -0.5581 0.5891
0.3511 -0.5491 0.4748
0.2352 -0.5859 0.0429
0.2525 -0.5750 0.2947
0.1089 -0.5541 0.5649
0.0641 -0.5507 0.5974
-0.0498 -0.5395 0.5654
-0.1624 -0.5604 0.1037
-0.1238 -0.5761 0.0976
0.2709 -0.5734 0.2599
0.0515 -0.5457 0.5125
0.1477 -0.5505 0.4987
0.2494 -0.5580 0.5469
0.0484 -0.5389 0.4838
0.2091 -0.5796 0.0468
0.2589 -0.5322 0.3698
0.3073 -0.5782 0.3118
-0.1448 -0.5714 0.1002
-0.1357 -0.5212 0.6030
0.3095 -0.5729 0.1862
0.3242 -0.5738 0.2787
0.2900 -0.5938 0.1734
0.2798 -0.5818 0.1434
0.3471 -0.5630 0.4214
0.3341 -0.5528 0.4946
0.2533 -0.5688 0.0373
0.1805 -0.5596 0.2664
0.1339 -0.5918 0.0604
0.1206 -0.5571 0.4832
0.1783 -0.5704 0.2459
-0.1302 -0.5368 0.2550
-0.1224 -0.5517 0.3347
0.1866 -0.5506 0.3127
-0.1031 -0.5219 0.3935
-0.1186 -0.5796 0.1483
-0.1356 -0.5633 0.1496
-0.1176 -0.5585 0.3917
0.0332 -0.5917 0.0486
0.0821 -0.5587 0.3634
-0.0025 -0.5493 0.4390
0.0893 -0.5264 0.4490
0.2249 -0.5520 0.4061
0.1344 -0.5616 0.5674
0.0683 -0.5650 0.4661
0.2541 -0.5572 0.5734
0.3119 -0.5537 0.4996
0.2964 -0.5607 0.5366
0.1383 -0.5621 0.5966
0.1282 -0.5506 0.5296
-0.1084 -0.5381 0.2520
0.0130 -0.5765 0.0763
-0.0926 -0.5670 0.1437
0.1567 -0.5944 0.2201
-0.0114 -0.5766 0.0784
-0.1030 -0.5612 0.3434
0.3348 -0.5419 0.5252
-0.1112 -0.5719 0.2896
-0.0681 -0.5211 0.5502
0.0096 -0.5685 0.5630
-0.1284 -0.5801 0.0730
0.1348 -0.5626 0.0906
0.0802 -0.5709 0.0406
0.3702 -0.5286 0.4933
0.2659 -0.5730 0.0898
0.3963 -0.5264 0.5264
0.4213 -0.5272 0.5333
0.0323 -0.5498 0.3397
0.2432 -0.5748 0.0635
0.0928 -0.5839 0.1231
0.1939 -0.5687 0.1992
-0.1485 -0.5710 0.2546
0.3813 -0.5234 0.5520
0.3334 -0.5822 0.3096
-0.1046 -0.5717 0.2508
0.0838 -0.5573 0.5716
0.0379 -0.5748 0.6245
0.1803 -0.5683 0.0510
0.1112 -0.5705 0.0862
0.2585 -0.6169 -0.1045

